ply
		format ascii 1.0
		element vertex 57000
		property float x
		property float y
		property float z
		property uchar red
		property uchar green
		property uchar blue
		end_header
158.000000 -192.000000 98.752495 112 131 143
159.000000 -192.000000 98.951996 118 131 140
160.000000 -192.000000 98.951996 142 157 161
161.000000 -192.000000 98.552994 156 171 162
162.000000 -192.000000 97.954498 162 177 156
163.000000 -192.000000 97.555496 165 177 156
164.000000 -192.000000 95.959496 153 167 159
165.000000 -192.000000 93.166496 143 153 166
166.000000 -192.000000 92.568001 142 150 163
167.000000 -192.000000 91.969498 125 137 145
168.000000 -192.000000 91.570496 83 102 110
169.000000 -192.000000 91.171501 60 89 95
170.000000 -192.000000 90.373497 55 87 94
171.000000 -192.000000 89.774994 55 88 93
172.000000 -192.000000 87.580498 56 85 94
173.000000 -192.000000 86.981995 54 86 95
174.000000 -192.000000 86.782501 55 86 93
175.000000 -192.000000 86.583000 55 88 91
176.000000 -192.000000 86.383499 55 85 92
177.000000 -192.000000 86.183998 53 83 93
178.000000 -192.000000 86.183998 53 83 91
179.000000 -192.000000 86.183998 56 81 86
180.000000 -192.000000 86.183998 67 62 66
181.000000 -192.000000 86.183998 89 45 39
182.000000 -192.000000 85.984497 100 35 39
183.000000 -192.000000 85.984497 105 35 42
184.000000 -192.000000 86.183998 107 40 43
185.000000 -192.000000 86.183998 113 39 40
186.000000 -192.000000 86.183998 115 37 42
187.000000 -192.000000 86.383499 118 40 37
188.000000 -192.000000 86.583000 120 41 39
189.000000 -192.000000 86.782501 123 39 45
190.000000 -192.000000 86.782501 125 39 45
191.000000 -192.000000 87.380997 126 40 42
192.000000 -192.000000 88.378494 127 45 42
193.000000 -192.000000 89.575500 128 44 49
194.000000 -192.000000 91.370995 126 45 51
195.000000 -192.000000 91.969498 126 47 50
196.000000 -192.000000 92.168999 130 48 54
197.000000 -192.000000 92.568001 137 50 55
198.000000 -192.000000 92.767494 134 49 51
199.000000 -192.000000 92.767494 137 72 69
200.000000 -192.000000 92.767494 174 135 130
201.000000 -192.000000 92.767494 192 158 155
202.000000 -192.000000 92.767494 171 141 140
203.000000 -192.000000 92.767494 138 112 105
204.000000 -192.000000 92.767494 143 114 105
205.000000 -192.000000 92.966995 103 94 96
206.000000 -192.000000 92.767494 71 93 101
215.000000 -192.000000 114.313499 110 43 39
216.000000 -192.000000 114.911995 111 40 38
217.000000 -192.000000 115.510498 120 35 33
218.000000 -192.000000 115.709999 129 36 25
219.000000 -192.000000 115.909500 133 36 28
220.000000 -192.000000 115.909500 130 37 36
221.000000 -192.000000 116.108994 126 36 44
222.000000 -192.000000 116.308495 137 42 40
223.000000 -192.000000 116.308495 144 55 48
224.000000 -192.000000 116.108994 150 62 64
225.000000 -192.000000 115.909500 148 67 69
226.000000 -192.000000 115.510498 149 75 75
227.000000 -192.000000 114.911995 166 86 85
228.000000 -192.000000 114.113998 174 95 96
229.000000 -192.000000 112.517998 168 82 84
230.000000 -192.000000 111.719994 154 71 68
231.000000 -192.000000 111.320999 149 80 62
232.000000 -192.000000 110.921997 132 93 74
233.000000 -192.000000 96.557999 92 106 99
234.000000 -192.000000 96.557999 80 101 98
235.000000 -192.000000 96.557999 82 98 93
236.000000 -192.000000 96.158997 105 98 72
237.000000 -192.000000 95.959496 148 125 56
238.000000 -192.000000 95.759995 190 159 64
239.000000 -192.000000 95.361000 197 167 67
240.000000 -192.000000 95.161499 195 170 69
241.000000 -192.000000 94.562996 199 171 65
242.000000 -192.000000 94.562996 200 170 68
243.000000 -192.000000 94.961998 198 168 74
244.000000 -192.000000 94.961998 199 169 73
245.000000 -192.000000 94.961998 201 169 74
246.000000 -192.000000 94.961998 202 169 75
247.000000 -192.000000 94.562996 201 169 72
248.000000 -192.000000 94.762497 199 170 74
249.000000 -192.000000 94.762497 199 171 71
250.000000 -192.000000 94.762497 199 172 71
251.000000 -192.000000 94.562996 198 174 71
252.000000 -192.000000 93.166496 201 173 72
253.000000 -192.000000 92.168999 203 171 74
254.000000 -192.000000 92.168999 204 172 72
255.000000 -192.000000 92.168999 203 173 73
256.000000 -192.000000 92.168999 203 174 75
257.000000 -192.000000 92.168999 203 175 73
258.000000 -192.000000 92.168999 203 174 78
259.000000 -192.000000 92.168999 203 174 77
260.000000 -192.000000 92.168999 203 176 75
261.000000 -192.000000 92.368500 205 176 74
262.000000 -192.000000 92.368500 204 175 75
263.000000 -192.000000 92.568001 203 177 76
264.000000 -192.000000 92.767494 205 177 77
265.000000 -192.000000 92.767494 205 176 77
266.000000 -192.000000 92.568001 205 176 74
267.000000 -192.000000 92.568001 206 178 77
268.000000 -192.000000 92.568001 182 171 99
269.000000 -192.000000 47.879997 129 148 132
270.000000 -192.000000 47.281498 120 146 144
271.000000 -192.000000 47.480999 151 161 154
272.000000 -192.000000 47.480999 168 167 161
273.000000 -192.000000 47.480999 171 165 163
274.000000 -192.000000 47.281498 169 166 161
275.000000 -192.000000 -0.199500 167 166 162
276.000000 -192.000000 -0.399000 165 169 160
277.000000 -192.000000 -0.399000 162 166 161
278.000000 -192.000000 -0.798000 164 165 159
279.000000 -192.000000 -0.798000 164 164 160
280.000000 -192.000000 -0.997500 161 163 159
281.000000 -192.000000 -0.997500 161 161 160
282.000000 -192.000000 -0.997500 165 160 160
283.000000 -192.000000 -0.997500 165 161 156
284.000000 -192.000000 -0.997500 163 159 156
285.000000 -192.000000 -0.997500 160 159 158
286.000000 -192.000000 -0.997500 156 161 155
287.000000 -192.000000 -0.997500 155 159 154
288.000000 -192.000000 -0.997500 158 156 154
289.000000 -192.000000 -1.197000 156 156 153
290.000000 -192.000000 -1.197000 155 157 149
291.000000 -192.000000 -1.197000 156 157 147
292.000000 -192.000000 -0.997500 155 154 149
293.000000 -192.000000 -0.798000 153 152 150
294.000000 -192.000000 -0.399000 153 150 150
295.000000 -192.000000 -0.199500 153 150 147
296.000000 -192.000000 0.000000 149 148 147
297.000000 -192.000000 0.000000 144 144 146
298.000000 -192.000000 0.399000 143 137 139
299.000000 -192.000000 1.197000 142 138 134
300.000000 -192.000000 2.394000 142 140 137
301.000000 -192.000000 2.793000 143 142 136
302.000000 -192.000000 3.192000 143 142 137
303.000000 -192.000000 2.194500 140 143 136
304.000000 -192.000000 0.598500 142 142 136
305.000000 -192.000000 0.598500 139 139 134
306.000000 -192.000000 0.997500 138 141 136
307.000000 -192.000000 1.396500 141 142 137
308.000000 -192.000000 1.197000 144 140 137
309.000000 -192.000000 1.197000 144 140 138
310.000000 -192.000000 1.197000 145 140 137
311.000000 -192.000000 0.997500 143 141 133
312.000000 -192.000000 0.798000 140 140 135
313.000000 -192.000000 0.598500 143 139 137
314.000000 -192.000000 0.399000 143 139 137
315.000000 -192.000000 0.399000 140 140 137
316.000000 -192.000000 0.399000 140 141 135
317.000000 -192.000000 0.598500 142 141 135
318.000000 -192.000000 0.399000 139 143 136
319.000000 -192.000000 0.399000 140 143 135
320.000000 -192.000000 0.399000 141 140 134
321.000000 -192.000000 0.598500 141 140 133
322.000000 -192.000000 0.598500 118 114 110
64.000000 -193.000000 72.617996 178 178 176
65.000000 -193.000000 73.216499 180 179 174
66.000000 -193.000000 73.216499 180 181 172
67.000000 -193.000000 73.016998 179 181 172
68.000000 -193.000000 73.016998 177 178 173
69.000000 -193.000000 73.016998 177 177 174
70.000000 -193.000000 73.016998 179 178 174
71.000000 -193.000000 73.016998 181 177 174
72.000000 -193.000000 73.016998 181 177 174
73.000000 -193.000000 73.016998 181 176 174
74.000000 -193.000000 73.016998 179 176 175
75.000000 -193.000000 73.016998 178 177 176
76.000000 -193.000000 72.617996 180 177 173
77.000000 -193.000000 72.219002 177 179 174
78.000000 -193.000000 71.620499 180 178 172
79.000000 -193.000000 71.620499 180 177 172
80.000000 -193.000000 71.420998 176 174 174
81.000000 -193.000000 71.620499 178 172 175
82.000000 -193.000000 71.420998 181 174 173
83.000000 -193.000000 71.620499 180 177 171
84.000000 -193.000000 72.817497 179 177 171
85.000000 -193.000000 72.817497 177 176 173
86.000000 -193.000000 72.817497 176 176 175
87.000000 -193.000000 72.817497 176 175 175
88.000000 -193.000000 73.016998 176 176 173
89.000000 -193.000000 73.016998 176 176 174
90.000000 -193.000000 73.416000 179 175 174
91.000000 -193.000000 73.216499 178 175 173
92.000000 -193.000000 73.416000 177 176 172
93.000000 -193.000000 73.216499 177 175 172
94.000000 -193.000000 73.416000 176 176 173
95.000000 -193.000000 73.416000 174 178 174
96.000000 -193.000000 73.416000 175 178 173
97.000000 -193.000000 73.416000 175 180 171
98.000000 -193.000000 73.416000 177 178 173
99.000000 -193.000000 73.416000 180 177 175
100.000000 -193.000000 73.216499 178 176 173
101.000000 -193.000000 73.216499 180 176 173
102.000000 -193.000000 73.216499 178 179 171
103.000000 -193.000000 73.216499 179 178 172
104.000000 -193.000000 73.216499 182 175 173
105.000000 -193.000000 73.016998 179 176 173
106.000000 -193.000000 72.617996 180 177 173
107.000000 -193.000000 9.775499 179 175 173
108.000000 -193.000000 9.775499 159 162 157
109.000000 -193.000000 10.573500 99 112 115
110.000000 -193.000000 12.169499 66 91 99
111.000000 -193.000000 12.568500 65 93 97
112.000000 -193.000000 12.768000 64 94 96
113.000000 -193.000000 12.568500 61 91 95
114.000000 -193.000000 9.576000 60 90 96
115.000000 -193.000000 9.576000 65 90 97
116.000000 -193.000000 9.576000 67 88 100
117.000000 -193.000000 10.174500 61 90 98
118.000000 -193.000000 10.374000 59 91 98
122.000000 -193.000000 8.578500 57 90 96
123.000000 -193.000000 9.177000 57 90 96
124.000000 -193.000000 9.376500 61 91 98
125.000000 -193.000000 8.379000 93 107 109
128.000000 -193.000000 127.280998 163 163 161
129.000000 -193.000000 127.679993 179 180 175
130.000000 -193.000000 128.078995 190 194 191
131.000000 -193.000000 128.278503 201 207 204
132.000000 -193.000000 128.477997 199 194 194
133.000000 -193.000000 128.677490 160 146 152
134.000000 -193.000000 128.876999 135 131 134
135.000000 -193.000000 129.874496 144 141 141
136.000000 -193.000000 130.871994 149 144 141
137.000000 -193.000000 131.869492 149 131 135
138.000000 -193.000000 132.268494 158 142 146
139.000000 -193.000000 133.265991 160 159 157
140.000000 -193.000000 133.265991 142 147 150
141.000000 -193.000000 132.268494 106 123 135
145.000000 -193.000000 97.754997 84 100 103
146.000000 -193.000000 97.754997 82 108 107
147.000000 -193.000000 98.353500 116 136 132
148.000000 -193.000000 98.353500 134 146 148
149.000000 -193.000000 98.353500 120 137 147
150.000000 -193.000000 98.353500 108 132 147
153.000000 -193.000000 97.754997 144 159 160
154.000000 -193.000000 97.954498 144 155 167
155.000000 -193.000000 98.353500 143 150 166
156.000000 -193.000000 98.353500 134 146 154
157.000000 -193.000000 98.552994 129 151 156
158.000000 -193.000000 98.752495 131 152 167
159.000000 -193.000000 98.752495 140 153 163
160.000000 -193.000000 98.153999 146 159 165
161.000000 -193.000000 97.954498 157 169 163
162.000000 -193.000000 97.555496 162 177 155
163.000000 -193.000000 96.557999 164 174 154
164.000000 -193.000000 95.759995 148 162 161
165.000000 -193.000000 93.565498 139 153 169
166.000000 -193.000000 92.767494 138 147 166
167.000000 -193.000000 92.168999 125 135 149
168.000000 -193.000000 91.370995 91 105 113
169.000000 -193.000000 90.772499 66 90 94
170.000000 -193.000000 90.173996 59 88 94
171.000000 -193.000000 89.774994 59 85 95
172.000000 -193.000000 87.580498 58 84 97
173.000000 -193.000000 87.181496 57 86 96
174.000000 -193.000000 86.981995 57 87 92
175.000000 -193.000000 86.782501 53 88 92
176.000000 -193.000000 86.583000 54 86 93
177.000000 -193.000000 86.383499 53 86 93
178.000000 -193.000000 86.383499 55 85 92
179.000000 -193.000000 86.383499 62 81 86
180.000000 -193.000000 86.183998 73 58 64
181.000000 -193.000000 86.183998 92 43 41
182.000000 -193.000000 86.383499 102 35 40
183.000000 -193.000000 86.383499 107 36 40
184.000000 -193.000000 86.383499 110 40 39
185.000000 -193.000000 86.583000 112 39 43
186.000000 -193.000000 86.782501 115 39 42
187.000000 -193.000000 86.981995 118 40 41
188.000000 -193.000000 87.181496 119 40 44
189.000000 -193.000000 87.380997 122 44 44
190.000000 -193.000000 87.380997 123 45 41
191.000000 -193.000000 87.779999 126 41 43
192.000000 -193.000000 89.375999 127 45 43
193.000000 -193.000000 91.171501 127 44 46
194.000000 -193.000000 91.769997 127 44 48
195.000000 -193.000000 91.969498 126 44 52
196.000000 -193.000000 92.368500 129 48 56
197.000000 -193.000000 92.568001 134 53 52
198.000000 -193.000000 92.767494 130 53 48
199.000000 -193.000000 92.767494 139 77 69
200.000000 -193.000000 92.767494 179 139 131
201.000000 -193.000000 92.966995 189 156 157
202.000000 -193.000000 92.966995 164 135 135
203.000000 -193.000000 92.966995 137 114 103
204.000000 -193.000000 93.166496 144 117 107
205.000000 -193.000000 93.166496 99 97 96
215.000000 -193.000000 114.712494 110 42 38
216.000000 -193.000000 115.510498 109 44 41
217.000000 -193.000000 115.909500 114 33 37
218.000000 -193.000000 116.308495 125 25 31
219.000000 -193.000000 116.308495 125 29 34
220.000000 -193.000000 116.308495 120 38 34
221.000000 -193.000000 116.308495 116 39 38
222.000000 -193.000000 116.308495 128 38 35
223.000000 -193.000000 116.308495 136 45 36
224.000000 -193.000000 116.108994 140 52 42
225.000000 -193.000000 115.709999 137 57 51
226.000000 -193.000000 115.510498 141 66 59
227.000000 -193.000000 114.911995 156 73 67
228.000000 -193.000000 114.113998 159 75 74
229.000000 -193.000000 112.517998 156 72 74
230.000000 -193.000000 111.719994 144 68 67
231.000000 -193.000000 111.320999 147 77 57
232.000000 -193.000000 110.921997 143 92 64
233.000000 -193.000000 96.957001 103 106 99
234.000000 -193.000000 96.557999 84 104 103
235.000000 -193.000000 96.957001 85 103 94
236.000000 -193.000000 96.557999 103 102 72
237.000000 -193.000000 96.358498 146 126 58
238.000000 -193.000000 96.158997 189 158 65
239.000000 -193.000000 95.759995 197 166 68
240.000000 -193.000000 95.361000 197 169 68
241.000000 -193.000000 95.161499 199 171 68
242.000000 -193.000000 95.161499 197 172 71
243.000000 -193.000000 95.161499 198 168 73
244.000000 -193.000000 94.961998 200 169 70
245.000000 -193.000000 94.961998 200 170 70
246.000000 -193.000000 94.961998 201 170 69
247.000000 -193.000000 94.961998 201 171 67
248.000000 -193.000000 94.961998 199 173 70
249.000000 -193.000000 94.762497 198 171 74
250.000000 -193.000000 94.562996 198 170 76
251.000000 -193.000000 93.166496 198 173 73
252.000000 -193.000000 92.966995 200 172 75
253.000000 -193.000000 91.969498 201 172 74
254.000000 -193.000000 92.168999 204 172 73
255.000000 -193.000000 92.168999 203 174 74
256.000000 -193.000000 92.368500 200 176 75
257.000000 -193.000000 92.368500 201 177 75
258.000000 -193.000000 92.368500 201 176 78
259.000000 -193.000000 92.368500 201 176 78
260.000000 -193.000000 92.368500 202 175 78
261.000000 -193.000000 92.368500 204 176 74
262.000000 -193.000000 92.568001 204 176 74
263.000000 -193.000000 92.767494 205 177 74
264.000000 -193.000000 92.767494 205 178 75
265.000000 -193.000000 92.767494 204 175 78
266.000000 -193.000000 92.767494 204 176 77
267.000000 -193.000000 92.767494 205 179 80
268.000000 -193.000000 92.568001 183 175 100
269.000000 -193.000000 92.168999 136 155 138
270.000000 -193.000000 47.480999 128 152 151
271.000000 -193.000000 47.480999 150 163 156
272.000000 -193.000000 47.480999 168 168 160
273.000000 -193.000000 47.480999 169 166 161
274.000000 -193.000000 47.281498 168 166 161
275.000000 -193.000000 -0.199500 167 165 161
276.000000 -193.000000 -0.399000 165 168 159
277.000000 -193.000000 -0.199500 163 166 158
278.000000 -193.000000 -0.598500 163 164 159
279.000000 -193.000000 -0.598500 164 164 158
280.000000 -193.000000 -0.798000 162 163 158
281.000000 -193.000000 -0.798000 163 159 161
282.000000 -193.000000 -0.997500 164 159 160
283.000000 -193.000000 -0.997500 163 161 157
284.000000 -193.000000 -0.997500 162 159 157
285.000000 -193.000000 -0.997500 160 160 157
286.000000 -193.000000 -0.997500 157 160 155
287.000000 -193.000000 -1.197000 156 158 156
288.000000 -193.000000 -1.197000 157 156 155
289.000000 -193.000000 -1.396500 157 155 151
290.000000 -193.000000 -1.396500 155 156 149
291.000000 -193.000000 -1.197000 154 155 148
292.000000 -193.000000 -0.997500 156 153 148
293.000000 -193.000000 -0.798000 155 151 149
294.000000 -193.000000 -0.598500 152 149 151
295.000000 -193.000000 -0.399000 152 151 147
296.000000 -193.000000 0.000000 151 150 145
297.000000 -193.000000 0.000000 144 146 143
298.000000 -193.000000 0.399000 142 139 138
299.000000 -193.000000 1.197000 142 139 135
300.000000 -193.000000 2.394000 144 141 135
301.000000 -193.000000 3.192000 145 142 135
302.000000 -193.000000 3.192000 144 142 135
303.000000 -193.000000 3.192000 143 143 136
304.000000 -193.000000 2.194500 144 143 135
305.000000 -193.000000 0.997500 141 141 133
306.000000 -193.000000 1.396500 141 143 133
307.000000 -193.000000 1.396500 142 143 135
308.000000 -193.000000 1.396500 141 141 137
309.000000 -193.000000 1.197000 140 141 137
310.000000 -193.000000 1.197000 141 142 135
311.000000 -193.000000 1.197000 140 143 133
312.000000 -193.000000 0.598500 140 141 136
313.000000 -193.000000 0.399000 142 139 137
314.000000 -193.000000 0.399000 140 139 138
315.000000 -193.000000 0.399000 137 140 138
316.000000 -193.000000 0.399000 141 140 136
317.000000 -193.000000 0.598500 139 141 136
318.000000 -193.000000 0.598500 136 142 135
319.000000 -193.000000 0.399000 137 142 134
320.000000 -193.000000 0.399000 138 141 134
321.000000 -193.000000 0.598500 139 141 132
322.000000 -193.000000 0.598500 115 115 109
64.000000 -194.000000 72.418495 177 179 175
65.000000 -194.000000 72.617996 180 181 173
66.000000 -194.000000 72.617996 178 181 172
67.000000 -194.000000 72.617996 178 180 174
68.000000 -194.000000 72.418495 177 177 176
69.000000 -194.000000 72.418495 177 176 177
70.000000 -194.000000 72.418495 179 177 176
71.000000 -194.000000 72.617996 181 176 175
72.000000 -194.000000 72.617996 180 176 175
73.000000 -194.000000 72.617996 181 176 173
74.000000 -194.000000 72.617996 180 175 174
75.000000 -194.000000 72.617996 181 176 175
76.000000 -194.000000 72.219002 183 176 173
77.000000 -194.000000 71.620499 180 178 173
78.000000 -194.000000 70.822495 180 178 172
79.000000 -194.000000 70.623001 180 178 170
80.000000 -194.000000 70.223999 176 176 173
81.000000 -194.000000 70.223999 177 173 176
82.000000 -194.000000 70.024498 178 174 175
83.000000 -194.000000 70.024498 178 175 172
84.000000 -194.000000 71.221497 177 176 173
85.000000 -194.000000 71.620499 174 176 174
86.000000 -194.000000 72.019501 174 175 175
87.000000 -194.000000 72.418495 178 175 175
88.000000 -194.000000 72.617996 178 176 172
89.000000 -194.000000 72.617996 176 177 173
90.000000 -194.000000 72.817497 178 176 175
91.000000 -194.000000 72.617996 177 176 173
92.000000 -194.000000 72.617996 178 177 170
93.000000 -194.000000 72.219002 180 174 172
94.000000 -194.000000 72.019501 177 174 175
95.000000 -194.000000 72.617996 176 177 173
96.000000 -194.000000 72.817497 178 177 173
97.000000 -194.000000 73.016998 177 178 173
98.000000 -194.000000 73.016998 179 178 173
99.000000 -194.000000 72.817497 180 177 174
100.000000 -194.000000 72.418495 181 175 175
101.000000 -194.000000 72.617996 181 175 173
102.000000 -194.000000 72.817497 179 178 170
103.000000 -194.000000 72.817497 179 177 171
104.000000 -194.000000 72.817497 182 177 172
105.000000 -194.000000 72.617996 179 179 171
106.000000 -194.000000 72.019501 178 179 172
107.000000 -194.000000 9.775499 177 175 174
108.000000 -194.000000 9.775499 160 162 161
109.000000 -194.000000 10.374000 102 114 117
110.000000 -194.000000 11.969999 68 90 99
111.000000 -194.000000 12.368999 66 92 97
112.000000 -194.000000 12.568500 65 92 96
113.000000 -194.000000 12.368999 62 91 96
114.000000 -194.000000 9.376500 64 89 97
115.000000 -194.000000 9.177000 67 89 97
116.000000 -194.000000 8.977500 64 90 98
117.000000 -194.000000 9.576000 64 91 96
121.000000 -194.000000 7.780500 63 89 94
122.000000 -194.000000 8.179500 56 90 94
123.000000 -194.000000 8.179500 55 92 95
124.000000 -194.000000 8.379000 56 92 96
125.000000 -194.000000 7.182000 76 100 102
128.000000 -194.000000 127.081497 160 157 156
129.000000 -194.000000 127.679993 176 175 172
130.000000 -194.000000 128.078995 190 191 188
131.000000 -194.000000 128.477997 204 205 203
132.000000 -194.000000 128.677490 210 204 201
133.000000 -194.000000 128.876999 179 165 163
134.000000 -194.000000 129.276001 142 140 137
135.000000 -194.000000 130.273499 145 144 142
136.000000 -194.000000 130.871994 151 144 145
137.000000 -194.000000 131.270996 153 132 138
138.000000 -194.000000 131.869492 160 151 150
139.000000 -194.000000 132.069000 157 159 157
140.000000 -194.000000 132.268494 130 135 141
141.000000 -194.000000 131.270996 103 117 130
142.000000 -194.000000 98.353500 105 118 134
144.000000 -194.000000 98.353500 104 120 133
145.000000 -194.000000 98.552994 84 104 110
146.000000 -194.000000 98.951996 80 108 109
147.000000 -194.000000 99.350998 115 137 133
148.000000 -194.000000 99.750000 135 147 151
149.000000 -194.000000 99.750000 122 139 146
150.000000 -194.000000 98.951996 105 120 140
153.000000 -194.000000 96.757500 137 143 153
154.000000 -194.000000 97.355995 142 151 163
155.000000 -194.000000 97.754997 145 151 171
156.000000 -194.000000 97.954498 139 146 154
157.000000 -194.000000 98.153999 141 156 156
158.000000 -194.000000 98.153999 151 165 172
159.000000 -194.000000 98.153999 153 164 167
160.000000 -194.000000 97.555496 148 161 168
161.000000 -194.000000 97.555496 151 163 159
162.000000 -194.000000 97.156494 156 168 148
163.000000 -194.000000 96.557999 161 168 153
164.000000 -194.000000 95.759995 148 157 163
165.000000 -194.000000 94.363495 139 150 169
166.000000 -194.000000 93.565498 140 149 158
167.000000 -194.000000 92.568001 127 136 141
168.000000 -194.000000 91.370995 88 105 113
169.000000 -194.000000 90.572998 63 91 98
170.000000 -194.000000 90.173996 58 89 95
171.000000 -194.000000 89.774994 59 85 96
172.000000 -194.000000 88.378494 63 84 97
173.000000 -194.000000 87.380997 59 86 95
174.000000 -194.000000 87.181496 58 89 92
175.000000 -194.000000 86.981995 55 89 92
176.000000 -194.000000 86.782501 54 88 92
177.000000 -194.000000 86.583000 56 86 92
178.000000 -194.000000 86.583000 57 86 92
179.000000 -194.000000 86.583000 65 80 85
180.000000 -194.000000 86.583000 80 56 59
181.000000 -194.000000 86.583000 96 43 40
182.000000 -194.000000 86.583000 105 39 38
183.000000 -194.000000 86.782501 107 39 38
184.000000 -194.000000 86.782501 110 40 38
185.000000 -194.000000 86.981995 112 40 40
186.000000 -194.000000 87.181496 116 42 37
187.000000 -194.000000 87.380997 119 41 38
188.000000 -194.000000 87.580498 120 42 42
189.000000 -194.000000 87.580498 121 44 42
190.000000 -194.000000 87.979500 123 46 42
191.000000 -194.000000 88.777496 126 44 41
192.000000 -194.000000 90.373497 129 45 37
193.000000 -194.000000 91.171501 130 46 41
194.000000 -194.000000 91.769997 127 47 45
195.000000 -194.000000 91.969498 127 46 49
196.000000 -194.000000 92.368500 130 48 49
197.000000 -194.000000 92.568001 134 50 49
198.000000 -194.000000 92.767494 133 52 48
199.000000 -194.000000 92.767494 145 82 70
200.000000 -194.000000 92.966995 183 143 132
201.000000 -194.000000 92.966995 188 153 154
202.000000 -194.000000 92.966995 156 127 127
203.000000 -194.000000 92.966995 136 114 104
204.000000 -194.000000 93.365997 144 118 111
205.000000 -194.000000 93.365997 103 98 96
214.000000 -194.000000 113.914497 105 41 46
215.000000 -194.000000 114.911995 108 40 37
216.000000 -194.000000 115.709999 107 44 37
217.000000 -194.000000 116.308495 106 39 37
218.000000 -194.000000 116.906998 113 29 35
219.000000 -194.000000 117.106499 114 30 37
220.000000 -194.000000 116.906998 109 38 42
221.000000 -194.000000 116.308495 107 42 44
222.000000 -194.000000 116.308495 115 46 40
223.000000 -194.000000 116.108994 122 49 38
224.000000 -194.000000 115.709999 126 50 36
225.000000 -194.000000 115.510498 127 51 45
226.000000 -194.000000 115.310997 134 56 46
227.000000 -194.000000 114.911995 138 62 48
228.000000 -194.000000 114.313499 134 62 61
229.000000 -194.000000 112.917000 124 61 69
230.000000 -194.000000 111.919495 118 65 69
231.000000 -194.000000 111.719994 141 77 57
232.000000 -194.000000 110.921997 148 94 61
233.000000 -194.000000 98.752495 110 112 101
234.000000 -194.000000 96.957001 89 108 109
235.000000 -194.000000 97.954498 89 104 100
236.000000 -194.000000 97.156494 102 101 81
237.000000 -194.000000 97.156494 145 123 64
238.000000 -194.000000 96.957001 187 156 67
239.000000 -194.000000 96.557999 195 166 70
240.000000 -194.000000 96.158997 197 166 70
241.000000 -194.000000 95.959496 197 168 70
242.000000 -194.000000 95.560501 197 171 73
243.000000 -194.000000 95.361000 199 168 77
244.000000 -194.000000 95.361000 200 168 74
245.000000 -194.000000 95.361000 199 171 68
246.000000 -194.000000 95.560501 199 172 66
247.000000 -194.000000 95.361000 199 174 69
248.000000 -194.000000 95.161499 198 174 74
249.000000 -194.000000 94.961998 196 171 75
250.000000 -194.000000 94.163994 199 170 74
251.000000 -194.000000 92.966995 200 173 74
252.000000 -194.000000 91.769997 201 172 75
253.000000 -194.000000 91.969498 202 172 72
254.000000 -194.000000 92.168999 205 173 72
255.000000 -194.000000 92.568001 203 175 75
256.000000 -194.000000 92.568001 199 178 74
257.000000 -194.000000 92.568001 198 177 75
258.000000 -194.000000 92.568001 200 177 73
259.000000 -194.000000 92.568001 201 177 75
260.000000 -194.000000 92.568001 203 175 78
261.000000 -194.000000 92.568001 204 176 76
262.000000 -194.000000 92.568001 205 177 71
263.000000 -194.000000 92.966995 206 177 70
264.000000 -194.000000 92.966995 206 177 74
265.000000 -194.000000 92.966995 204 176 78
266.000000 -194.000000 92.767494 203 177 78
267.000000 -194.000000 92.767494 206 179 79
268.000000 -194.000000 92.568001 188 178 103
269.000000 -194.000000 92.168999 146 164 148
270.000000 -194.000000 47.680500 138 161 159
271.000000 -194.000000 47.480999 152 167 161
272.000000 -194.000000 47.480999 166 170 162
273.000000 -194.000000 47.480999 166 168 161
274.000000 -194.000000 47.281498 167 167 162
275.000000 -194.000000 0.000000 169 165 162
276.000000 -194.000000 -0.399000 167 166 161
277.000000 -194.000000 0.000000 163 166 160
278.000000 -194.000000 -0.399000 162 163 161
279.000000 -194.000000 -0.199500 163 163 159
280.000000 -194.000000 -0.598500 165 162 158
281.000000 -194.000000 -0.598500 165 160 160
282.000000 -194.000000 -0.798000 162 161 158
283.000000 -194.000000 -0.798000 161 161 157
284.000000 -194.000000 -0.798000 163 161 158
285.000000 -194.000000 -0.798000 161 161 156
286.000000 -194.000000 -0.997500 159 160 154
287.000000 -194.000000 -1.396500 159 158 154
288.000000 -194.000000 -1.396500 158 157 154
289.000000 -194.000000 -3.192000 155 156 151
290.000000 -194.000000 -3.192000 155 156 150
291.000000 -194.000000 -1.197000 155 153 149
292.000000 -194.000000 -1.197000 156 152 149
293.000000 -194.000000 -0.798000 154 151 149
294.000000 -194.000000 -0.798000 152 150 150
295.000000 -194.000000 -0.598500 152 151 146
296.000000 -194.000000 -0.399000 153 149 144
297.000000 -194.000000 0.000000 144 147 141
298.000000 -194.000000 0.399000 139 141 138
299.000000 -194.000000 0.997500 140 141 136
300.000000 -194.000000 2.194500 143 143 135
301.000000 -194.000000 3.192000 144 143 136
302.000000 -194.000000 3.192000 144 143 136
303.000000 -194.000000 3.192000 145 142 135
304.000000 -194.000000 2.394000 145 143 135
305.000000 -194.000000 1.596000 142 143 133
306.000000 -194.000000 1.596000 142 145 134
307.000000 -194.000000 1.795500 142 143 137
308.000000 -194.000000 1.795500 140 142 138
309.000000 -194.000000 1.197000 140 142 137
310.000000 -194.000000 0.997500 141 141 135
311.000000 -194.000000 0.997500 141 142 135
312.000000 -194.000000 0.199500 141 141 136
313.000000 -194.000000 0.199500 142 140 137
314.000000 -194.000000 0.199500 141 141 136
315.000000 -194.000000 0.199500 141 143 135
316.000000 -194.000000 0.199500 143 141 136
317.000000 -194.000000 0.598500 141 140 138
318.000000 -194.000000 0.598500 140 140 137
319.000000 -194.000000 0.199500 140 141 135
320.000000 -194.000000 0.199500 139 141 133
321.000000 -194.000000 0.598500 140 140 132
322.000000 -194.000000 0.598500 117 114 109
64.000000 -195.000000 72.418495 177 178 173
65.000000 -195.000000 72.418495 179 178 174
66.000000 -195.000000 72.418495 176 179 175
67.000000 -195.000000 72.418495 179 176 176
68.000000 -195.000000 72.418495 180 175 178
69.000000 -195.000000 72.418495 179 175 177
70.000000 -195.000000 72.418495 178 176 176
71.000000 -195.000000 72.418495 178 176 175
72.000000 -195.000000 72.418495 178 177 174
73.000000 -195.000000 72.418495 178 177 175
74.000000 -195.000000 72.418495 179 176 175
75.000000 -195.000000 72.219002 182 178 171
76.000000 -195.000000 71.420998 181 177 170
77.000000 -195.000000 70.822495 178 178 171
78.000000 -195.000000 70.423500 178 178 171
79.000000 -195.000000 70.223999 177 177 170
80.000000 -195.000000 70.223999 178 175 172
81.000000 -195.000000 70.024498 180 174 172
82.000000 -195.000000 69.625496 179 176 173
83.000000 -195.000000 69.824997 178 176 172
84.000000 -195.000000 69.824997 177 176 173
85.000000 -195.000000 71.221497 177 176 174
86.000000 -195.000000 71.620499 178 176 173
87.000000 -195.000000 72.019501 178 176 173
88.000000 -195.000000 72.617996 179 176 173
89.000000 -195.000000 72.617996 178 177 172
90.000000 -195.000000 72.617996 178 176 173
91.000000 -195.000000 72.219002 177 176 172
92.000000 -195.000000 72.219002 178 177 170
93.000000 -195.000000 71.820000 180 176 171
94.000000 -195.000000 71.420998 177 176 174
95.000000 -195.000000 71.820000 177 176 175
96.000000 -195.000000 72.219002 180 176 174
97.000000 -195.000000 72.418495 180 177 173
98.000000 -195.000000 72.418495 179 178 173
99.000000 -195.000000 72.418495 178 180 172
100.000000 -195.000000 71.820000 179 179 172
101.000000 -195.000000 72.219002 179 179 170
102.000000 -195.000000 72.418495 177 179 170
103.000000 -195.000000 72.817497 178 178 171
104.000000 -195.000000 72.617996 179 178 172
105.000000 -195.000000 72.219002 177 179 171
106.000000 -195.000000 71.620499 178 178 172
107.000000 -195.000000 9.775499 178 176 173
108.000000 -195.000000 9.775499 161 163 163
109.000000 -195.000000 10.374000 103 117 118
110.000000 -195.000000 11.969999 72 93 97
111.000000 -195.000000 12.169499 66 94 96
112.000000 -195.000000 12.368999 60 93 96
113.000000 -195.000000 11.969999 57 91 98
114.000000 -195.000000 7.780500 65 90 97
122.000000 -195.000000 7.780500 58 91 94
123.000000 -195.000000 8.179500 58 93 95
124.000000 -195.000000 7.780500 58 92 95
125.000000 -195.000000 6.583500 64 95 97
129.000000 -195.000000 127.679993 170 171 169
130.000000 -195.000000 128.078995 187 187 185
131.000000 -195.000000 128.677490 204 199 199
132.000000 -195.000000 128.876999 213 206 204
133.000000 -195.000000 129.276001 194 178 176
134.000000 -195.000000 129.874496 155 148 146
135.000000 -195.000000 130.273499 145 146 144
136.000000 -195.000000 130.871994 151 143 144
137.000000 -195.000000 130.871994 158 135 140
138.000000 -195.000000 131.270996 164 155 154
139.000000 -195.000000 131.470490 150 150 150
140.000000 -195.000000 131.270996 123 128 131
141.000000 -195.000000 130.672501 114 126 132
142.000000 -195.000000 98.951996 116 130 136
143.000000 -195.000000 98.951996 120 130 139
144.000000 -195.000000 98.951996 109 117 127
145.000000 -195.000000 98.951996 85 99 108
146.000000 -195.000000 99.350998 87 109 114
147.000000 -195.000000 99.949501 107 128 133
148.000000 -195.000000 100.547997 110 126 137
149.000000 -195.000000 100.547997 91 103 115
150.000000 -195.000000 100.348495 73 79 95
151.000000 -195.000000 99.550499 68 67 85
154.000000 -195.000000 96.757500 114 124 139
155.000000 -195.000000 96.757500 133 144 167
156.000000 -195.000000 96.957001 134 142 149
157.000000 -195.000000 97.156494 147 151 146
158.000000 -195.000000 97.355995 163 166 162
159.000000 -195.000000 97.355995 163 167 162
160.000000 -195.000000 97.355995 156 163 163
161.000000 -195.000000 97.156494 135 143 144
162.000000 -195.000000 97.156494 131 142 130
163.000000 -195.000000 96.557999 155 164 150
164.000000 -195.000000 95.759995 152 157 162
165.000000 -195.000000 94.762497 142 152 160
166.000000 -195.000000 94.163994 143 152 147
167.000000 -195.000000 92.568001 121 134 134
168.000000 -195.000000 90.972000 83 104 112
169.000000 -195.000000 90.572998 65 91 100
170.000000 -195.000000 90.173996 65 91 95
171.000000 -195.000000 89.974495 64 90 95
172.000000 -195.000000 88.777496 66 87 95
173.000000 -195.000000 87.380997 61 88 96
174.000000 -195.000000 87.181496 59 90 93
175.000000 -195.000000 87.181496 54 89 93
176.000000 -195.000000 86.782501 56 88 94
177.000000 -195.000000 86.583000 59 85 95
178.000000 -195.000000 86.583000 54 87 94
179.000000 -195.000000 86.583000 58 82 84
180.000000 -195.000000 86.782501 80 56 56
181.000000 -195.000000 86.782501 95 44 40
182.000000 -195.000000 86.782501 106 40 36
183.000000 -195.000000 86.981995 109 39 37
184.000000 -195.000000 86.981995 111 39 41
185.000000 -195.000000 87.181496 114 37 41
186.000000 -195.000000 87.380997 119 39 38
187.000000 -195.000000 87.580498 121 39 39
188.000000 -195.000000 87.580498 118 39 42
189.000000 -195.000000 87.979500 117 43 41
190.000000 -195.000000 88.577995 122 43 42
191.000000 -195.000000 89.375999 126 42 43
192.000000 -195.000000 90.373497 130 44 40
193.000000 -195.000000 91.171501 130 46 42
194.000000 -195.000000 91.570496 124 51 43
195.000000 -195.000000 91.969498 125 53 42
196.000000 -195.000000 92.368500 131 48 46
197.000000 -195.000000 92.568001 133 50 48
198.000000 -195.000000 92.767494 130 49 50
199.000000 -195.000000 92.966995 145 85 74
200.000000 -195.000000 92.966995 179 146 136
201.000000 -195.000000 92.966995 179 152 149
202.000000 -195.000000 92.966995 149 123 116
203.000000 -195.000000 92.966995 143 117 104
204.000000 -195.000000 93.365997 147 117 114
205.000000 -195.000000 93.365997 108 97 98
214.000000 -195.000000 114.313499 83 45 45
215.000000 -195.000000 115.310997 89 43 34
216.000000 -195.000000 116.308495 95 41 34
217.000000 -195.000000 117.106499 95 40 40
218.000000 -195.000000 117.306000 96 40 36
219.000000 -195.000000 117.306000 103 38 35
220.000000 -195.000000 117.106499 105 39 41
221.000000 -195.000000 116.507996 109 42 39
222.000000 -195.000000 116.108994 116 46 36
223.000000 -195.000000 115.709999 112 53 43
224.000000 -195.000000 115.510498 105 55 44
225.000000 -195.000000 115.310997 109 54 46
226.000000 -195.000000 115.111496 113 60 50
227.000000 -195.000000 114.911995 107 69 60
228.000000 -195.000000 114.712494 97 70 72
229.000000 -195.000000 113.315994 78 58 71
230.000000 -195.000000 112.517998 91 62 69
231.000000 -195.000000 111.919495 136 76 60
232.000000 -195.000000 111.320999 148 96 64
233.000000 -195.000000 98.752495 120 118 108
234.000000 -195.000000 98.153999 99 115 120
235.000000 -195.000000 98.153999 96 110 109
236.000000 -195.000000 97.954498 103 104 84
237.000000 -195.000000 97.754997 143 121 65
238.000000 -195.000000 97.954498 186 156 67
239.000000 -195.000000 97.754997 196 167 67
240.000000 -195.000000 96.957001 196 168 67
241.000000 -195.000000 96.158997 196 168 70
242.000000 -195.000000 95.959496 198 170 73
243.000000 -195.000000 95.759995 199 170 74
244.000000 -195.000000 95.560501 197 169 73
245.000000 -195.000000 95.759995 196 170 70
246.000000 -195.000000 95.759995 198 170 72
247.000000 -195.000000 95.759995 200 174 70
248.000000 -195.000000 95.361000 200 173 72
249.000000 -195.000000 95.161499 199 171 71
250.000000 -195.000000 92.966995 198 171 74
251.000000 -195.000000 92.168999 198 172 78
252.000000 -195.000000 91.370995 200 172 79
253.000000 -195.000000 91.370995 202 173 73
254.000000 -195.000000 92.568001 204 173 71
255.000000 -195.000000 93.365997 203 174 76
256.000000 -195.000000 93.365997 200 176 78
257.000000 -195.000000 92.568001 199 175 80
258.000000 -195.000000 92.568001 201 176 75
259.000000 -195.000000 92.568001 201 177 74
260.000000 -195.000000 92.568001 202 175 78
261.000000 -195.000000 92.568001 204 177 75
262.000000 -195.000000 92.568001 204 178 69
263.000000 -195.000000 92.966995 206 176 69
264.000000 -195.000000 92.966995 205 176 76
265.000000 -195.000000 92.966995 204 176 77
266.000000 -195.000000 92.767494 204 177 74
267.000000 -195.000000 92.767494 206 179 75
268.000000 -195.000000 92.568001 188 179 104
269.000000 -195.000000 91.969498 147 167 149
270.000000 -195.000000 48.278999 138 164 160
271.000000 -195.000000 47.680500 148 166 161
272.000000 -195.000000 47.879997 162 168 163
273.000000 -195.000000 47.879997 167 168 161
274.000000 -195.000000 47.480999 169 166 162
275.000000 -195.000000 0.000000 167 165 163
276.000000 -195.000000 -0.199500 167 165 163
277.000000 -195.000000 0.000000 166 166 161
278.000000 -195.000000 0.000000 163 162 162
279.000000 -195.000000 0.000000 163 161 161
280.000000 -195.000000 -0.199500 164 161 161
281.000000 -195.000000 -0.598500 164 161 159
282.000000 -195.000000 -0.598500 161 162 157
283.000000 -195.000000 -0.598500 160 160 157
284.000000 -195.000000 -0.598500 162 159 159
285.000000 -195.000000 -0.798000 163 159 156
286.000000 -195.000000 -0.997500 160 160 153
287.000000 -195.000000 -1.197000 157 159 152
288.000000 -195.000000 -1.396500 158 158 152
289.000000 -195.000000 -3.192000 154 157 150
290.000000 -195.000000 -1.396500 153 155 150
291.000000 -195.000000 -1.197000 153 152 149
292.000000 -195.000000 -1.197000 154 151 150
293.000000 -195.000000 -0.997500 154 152 147
294.000000 -195.000000 -0.798000 154 151 146
295.000000 -195.000000 -0.598500 152 150 146
296.000000 -195.000000 -0.598500 149 148 146
297.000000 -195.000000 -0.399000 146 146 141
298.000000 -195.000000 0.199500 138 142 136
299.000000 -195.000000 0.997500 137 142 135
300.000000 -195.000000 2.194500 141 143 135
301.000000 -195.000000 3.192000 143 143 136
302.000000 -195.000000 3.192000 145 140 136
303.000000 -195.000000 3.192000 145 142 135
304.000000 -195.000000 2.394000 145 144 135
305.000000 -195.000000 1.596000 141 143 132
306.000000 -195.000000 1.596000 141 143 134
307.000000 -195.000000 1.596000 143 142 137
308.000000 -195.000000 1.596000 141 143 135
309.000000 -195.000000 0.997500 143 143 133
310.000000 -195.000000 0.798000 143 141 134
311.000000 -195.000000 0.798000 142 140 133
312.000000 -195.000000 0.000000 142 138 134
313.000000 -195.000000 0.000000 142 139 135
314.000000 -195.000000 0.000000 142 141 135
315.000000 -195.000000 0.199500 143 143 135
316.000000 -195.000000 0.199500 143 141 137
317.000000 -195.000000 0.399000 140 140 139
318.000000 -195.000000 0.399000 140 140 139
319.000000 -195.000000 0.199500 142 140 136
320.000000 -195.000000 0.199500 141 139 134
321.000000 -195.000000 0.598500 141 137 134
322.000000 -195.000000 0.598500 116 112 110
64.000000 -196.000000 72.418495 179 178 171
65.000000 -196.000000 72.418495 179 177 172
66.000000 -196.000000 72.418495 180 176 175
67.000000 -196.000000 72.418495 179 175 175
68.000000 -196.000000 72.418495 178 175 175
69.000000 -196.000000 72.418495 177 176 176
70.000000 -196.000000 72.219002 176 176 176
71.000000 -196.000000 72.219002 179 178 172
72.000000 -196.000000 72.019501 179 179 171
73.000000 -196.000000 72.219002 177 175 176
74.000000 -196.000000 72.019501 179 176 175
75.000000 -196.000000 71.620499 181 176 172
76.000000 -196.000000 71.221497 181 176 170
77.000000 -196.000000 70.822495 177 177 173
78.000000 -196.000000 70.423500 176 176 173
79.000000 -196.000000 70.223999 177 175 173
80.000000 -196.000000 70.024498 179 173 174
81.000000 -196.000000 69.625496 181 174 173
82.000000 -196.000000 69.425995 179 176 173
83.000000 -196.000000 69.425995 178 178 172
84.000000 -196.000000 69.824997 178 177 172
85.000000 -196.000000 71.021996 179 176 173
86.000000 -196.000000 71.420998 179 175 172
87.000000 -196.000000 72.019501 177 176 172
88.000000 -196.000000 72.418495 177 176 173
89.000000 -196.000000 72.418495 179 176 171
90.000000 -196.000000 72.617996 180 176 170
91.000000 -196.000000 72.219002 177 179 169
92.000000 -196.000000 72.219002 177 178 170
93.000000 -196.000000 71.420998 178 176 172
94.000000 -196.000000 71.221497 178 176 173
95.000000 -196.000000 71.221497 180 176 173
96.000000 -196.000000 71.620499 182 176 172
97.000000 -196.000000 71.620499 181 177 171
98.000000 -196.000000 71.620499 181 178 173
99.000000 -196.000000 71.820000 179 180 171
100.000000 -196.000000 71.420998 176 181 170
101.000000 -196.000000 71.820000 179 180 170
102.000000 -196.000000 72.418495 180 179 172
103.000000 -196.000000 72.617996 181 178 172
104.000000 -196.000000 72.617996 179 178 171
105.000000 -196.000000 72.019501 178 177 172
106.000000 -196.000000 71.021996 179 177 173
107.000000 -196.000000 70.423500 180 175 174
108.000000 -196.000000 10.174500 163 163 163
109.000000 -196.000000 10.174500 103 120 120
110.000000 -196.000000 11.969999 72 96 98
111.000000 -196.000000 12.169499 68 95 97
112.000000 -196.000000 12.169499 65 95 97
113.000000 -196.000000 9.376500 64 91 99
122.000000 -196.000000 7.780500 61 94 94
123.000000 -196.000000 7.780500 59 93 95
124.000000 -196.000000 6.783000 63 90 96
125.000000 -196.000000 5.785500 63 89 96
129.000000 -196.000000 127.480499 162 164 163
130.000000 -196.000000 128.078995 181 180 182
131.000000 -196.000000 128.677490 197 194 199
132.000000 -196.000000 128.876999 211 204 207
133.000000 -196.000000 129.276001 203 184 188
134.000000 -196.000000 129.874496 167 155 154
135.000000 -196.000000 130.273499 148 147 144
136.000000 -196.000000 130.472992 153 140 143
137.000000 -196.000000 130.871994 161 137 145
138.000000 -196.000000 130.871994 163 154 156
139.000000 -196.000000 130.871994 130 131 131
140.000000 -196.000000 130.672501 112 119 117
141.000000 -196.000000 129.675003 122 133 134
142.000000 -196.000000 98.951996 127 138 141
143.000000 -196.000000 98.951996 127 133 139
144.000000 -196.000000 98.951996 108 112 120
145.000000 -196.000000 99.350998 91 104 112
146.000000 -196.000000 99.949501 96 116 130
147.000000 -196.000000 100.547997 97 111 128
148.000000 -196.000000 101.346001 83 86 98
149.000000 -196.000000 101.944496 63 63 70
150.000000 -196.000000 101.944496 58 56 61
151.000000 -196.000000 101.744995 57 56 59
152.000000 -196.000000 99.550499 59 59 61
153.000000 -196.000000 96.757500 58 61 62
154.000000 -196.000000 96.358498 79 82 95
155.000000 -196.000000 96.358498 119 125 152
156.000000 -196.000000 96.358498 142 145 153
157.000000 -196.000000 96.358498 157 153 143
158.000000 -196.000000 96.557999 167 161 152
159.000000 -196.000000 96.757500 165 165 157
160.000000 -196.000000 96.757500 160 161 153
161.000000 -196.000000 97.156494 141 141 138
162.000000 -196.000000 97.156494 140 145 139
163.000000 -196.000000 97.156494 159 167 157
164.000000 -196.000000 96.158997 157 164 158
165.000000 -196.000000 95.161499 149 160 146
166.000000 -196.000000 94.562996 142 151 139
167.000000 -196.000000 92.568001 114 124 126
168.000000 -196.000000 90.972000 87 104 110
169.000000 -196.000000 90.373497 71 93 99
170.000000 -196.000000 89.974495 69 93 97
171.000000 -196.000000 89.974495 66 93 98
172.000000 -196.000000 89.176498 65 89 99
173.000000 -196.000000 87.580498 62 90 99
174.000000 -196.000000 87.181496 64 92 97
175.000000 -196.000000 86.981995 61 91 95
176.000000 -196.000000 86.782501 64 90 95
177.000000 -196.000000 86.583000 66 88 95
178.000000 -196.000000 86.782501 61 88 95
179.000000 -196.000000 86.782501 64 80 85
180.000000 -196.000000 86.981995 86 53 53
181.000000 -196.000000 86.981995 99 41 40
182.000000 -196.000000 86.981995 108 40 35
183.000000 -196.000000 87.181496 112 39 38
184.000000 -196.000000 87.181496 115 41 40
185.000000 -196.000000 87.380997 118 37 41
186.000000 -196.000000 87.580498 120 39 44
187.000000 -196.000000 87.580498 120 39 41
188.000000 -196.000000 87.779999 120 37 45
189.000000 -196.000000 88.179001 120 41 44
190.000000 -196.000000 88.976997 123 44 43
191.000000 -196.000000 89.375999 125 46 44
192.000000 -196.000000 89.974495 127 44 46
193.000000 -196.000000 90.373497 127 45 48
194.000000 -196.000000 91.370995 125 50 45
195.000000 -196.000000 91.769997 126 53 41
196.000000 -196.000000 92.368500 131 50 44
197.000000 -196.000000 92.568001 133 52 47
198.000000 -196.000000 92.767494 131 51 51
199.000000 -196.000000 92.966995 146 87 79
200.000000 -196.000000 92.966995 176 146 140
201.000000 -196.000000 92.966995 171 148 148
202.000000 -196.000000 92.966995 142 119 112
203.000000 -196.000000 92.966995 147 123 109
204.000000 -196.000000 93.365997 148 117 115
205.000000 -196.000000 93.365997 111 98 101
214.000000 -196.000000 114.313499 68 57 56
215.000000 -196.000000 115.709999 67 52 47
216.000000 -196.000000 117.106499 69 44 45
217.000000 -196.000000 117.505493 79 42 48
218.000000 -196.000000 117.505493 89 42 45
219.000000 -196.000000 117.505493 104 36 40
220.000000 -196.000000 117.306000 112 40 35
221.000000 -196.000000 116.507996 112 43 31
222.000000 -196.000000 116.108994 116 43 29
223.000000 -196.000000 115.510498 104 44 42
224.000000 -196.000000 115.310997 84 52 51
225.000000 -196.000000 115.111496 88 67 62
226.000000 -196.000000 115.111496 108 93 83
227.000000 -196.000000 114.911995 128 121 112
228.000000 -196.000000 114.911995 137 134 130
229.000000 -196.000000 114.313499 98 92 108
230.000000 -196.000000 113.116493 86 60 73
231.000000 -196.000000 112.517998 133 74 63
232.000000 -196.000000 111.719994 147 99 70
233.000000 -196.000000 98.153999 130 130 121
234.000000 -196.000000 97.355995 111 126 136
235.000000 -196.000000 97.954498 107 120 121
236.000000 -196.000000 97.954498 108 108 91
237.000000 -196.000000 97.754997 141 121 68
238.000000 -196.000000 97.954498 184 156 68
239.000000 -196.000000 97.754997 195 166 66
240.000000 -196.000000 97.754997 195 169 66
241.000000 -196.000000 96.957001 194 169 71
242.000000 -196.000000 95.959496 196 169 73
243.000000 -196.000000 95.759995 196 169 73
244.000000 -196.000000 95.759995 194 171 71
245.000000 -196.000000 95.759995 195 172 68
246.000000 -196.000000 95.959496 196 171 71
247.000000 -196.000000 95.759995 200 171 71
248.000000 -196.000000 95.161499 203 171 71
249.000000 -196.000000 94.163994 201 173 70
250.000000 -196.000000 92.966995 200 173 71
251.000000 -196.000000 92.168999 197 172 76
252.000000 -196.000000 91.769997 197 173 78
253.000000 -196.000000 91.769997 200 173 75
254.000000 -196.000000 92.767494 203 174 69
255.000000 -196.000000 94.562996 203 173 73
256.000000 -196.000000 94.562996 203 176 73
257.000000 -196.000000 93.365997 203 176 75
258.000000 -196.000000 92.568001 202 177 72
259.000000 -196.000000 92.568001 200 176 75
260.000000 -196.000000 92.568001 202 175 78
261.000000 -196.000000 92.568001 203 178 75
262.000000 -196.000000 92.568001 201 177 71
263.000000 -196.000000 92.966995 203 176 70
264.000000 -196.000000 92.966995 202 176 76
265.000000 -196.000000 92.966995 200 176 80
