ply
		format ascii 1.0
		element vertex 61390
		property float x
		property float y
		property float z
		property uchar red
		property uchar green
		property uchar blue
		end_header
167.000000 -140.000000 0.000000 62 84 92
168.000000 -140.000000 -0.997500 64 83 92
169.000000 -140.000000 -0.997500 64 83 93
170.000000 -140.000000 -0.598500 57 84 93
171.000000 -140.000000 -0.598500 56 84 92
172.000000 -140.000000 -0.598500 61 83 94
173.000000 -140.000000 -0.399000 62 81 95
174.000000 -140.000000 -0.199500 60 85 93
175.000000 -140.000000 0.000000 59 85 95
176.000000 -140.000000 0.000000 62 85 94
177.000000 -140.000000 0.000000 60 83 97
178.000000 -140.000000 0.399000 59 84 95
179.000000 -140.000000 0.598500 60 87 93
180.000000 -140.000000 0.399000 57 89 93
181.000000 -140.000000 0.598500 60 88 93
182.000000 -140.000000 0.997500 62 87 94
183.000000 -140.000000 2.194500 60 87 96
184.000000 -140.000000 2.593500 59 88 96
185.000000 -140.000000 2.992500 61 86 97
186.000000 -140.000000 3.192000 62 85 99
187.000000 -140.000000 3.192000 64 86 99
188.000000 -140.000000 3.192000 65 86 99
189.000000 -140.000000 2.593500 65 87 99
190.000000 -140.000000 2.194500 64 87 98
191.000000 -140.000000 1.596000 65 87 98
192.000000 -140.000000 1.596000 65 89 96
193.000000 -140.000000 2.793000 65 87 98
194.000000 -140.000000 2.793000 68 86 98
195.000000 -140.000000 2.593500 68 87 97
196.000000 -140.000000 2.394000 67 88 97
197.000000 -140.000000 2.194500 64 90 98
198.000000 -140.000000 1.396500 64 89 99
199.000000 -140.000000 1.396500 66 88 99
200.000000 -140.000000 1.995000 65 91 96
201.000000 -140.000000 2.194500 67 88 97
202.000000 -140.000000 2.194500 67 88 100
203.000000 -140.000000 2.194500 63 89 100
204.000000 -140.000000 2.194500 65 88 100
205.000000 -140.000000 1.396500 67 86 101
206.000000 -140.000000 1.396500 66 86 101
207.000000 -140.000000 1.197000 66 86 101
208.000000 -140.000000 0.997500 68 87 101
209.000000 -140.000000 0.598500 67 89 99
210.000000 -140.000000 0.199500 67 90 97
211.000000 -140.000000 0.000000 66 89 98
212.000000 -140.000000 0.199500 67 88 99
213.000000 -140.000000 0.000000 66 88 98
214.000000 -140.000000 0.000000 63 88 100
215.000000 -140.000000 0.000000 62 90 97
216.000000 -140.000000 -0.199500 63 91 97
217.000000 -140.000000 -0.399000 66 86 99
218.000000 -140.000000 -3.192000 63 88 98
219.000000 -140.000000 -3.192000 62 90 99
220.000000 -140.000000 -3.192000 63 88 99
221.000000 -140.000000 -3.192000 62 88 97
222.000000 -140.000000 -3.192000 62 89 96
226.000000 -140.000000 2.793000 66 88 96
227.000000 -140.000000 2.793000 67 86 98
228.000000 -140.000000 2.194500 69 87 96
229.000000 -140.000000 1.995000 70 85 96
230.000000 -140.000000 1.995000 69 84 97
231.000000 -140.000000 2.394000 66 86 97
232.000000 -140.000000 1.596000 64 88 98
233.000000 -140.000000 0.798000 65 89 97
234.000000 -140.000000 0.598500 68 88 94
235.000000 -140.000000 0.399000 67 85 95
236.000000 -140.000000 0.399000 66 84 96
237.000000 -140.000000 0.598500 67 87 95
238.000000 -140.000000 0.598500 66 88 95
239.000000 -140.000000 0.598500 64 86 97
240.000000 -140.000000 0.598500 67 86 95
241.000000 -140.000000 0.798000 64 86 95
242.000000 -140.000000 0.798000 59 84 96
243.000000 -140.000000 0.598500 63 85 95
244.000000 -140.000000 0.399000 67 85 95
245.000000 -140.000000 0.199500 72 86 93
246.000000 -140.000000 0.000000 68 88 92
247.000000 -140.000000 0.000000 64 86 96
248.000000 -140.000000 0.000000 69 84 95
249.000000 -140.000000 0.199500 68 85 93
250.000000 -140.000000 0.199500 67 86 93
251.000000 -140.000000 0.399000 67 83 95
252.000000 -140.000000 0.199500 69 83 97
253.000000 -140.000000 0.199500 69 82 96
254.000000 -140.000000 0.000000 66 82 97
255.000000 -140.000000 0.000000 65 84 95
256.000000 -140.000000 0.000000 69 82 93
257.000000 -140.000000 0.000000 68 81 92
258.000000 -140.000000 -0.199500 69 88 95
259.000000 -140.000000 -0.399000 116 123 120
260.000000 -140.000000 -0.598500 154 150 151
261.000000 -140.000000 -0.798000 158 150 158
262.000000 -140.000000 -3.192000 156 150 158
263.000000 -140.000000 -3.192000 155 150 157
264.000000 -140.000000 -3.192000 156 150 157
265.000000 -140.000000 -3.192000 154 151 156
266.000000 -140.000000 -3.192000 154 151 156
267.000000 -140.000000 -3.192000 155 147 157
268.000000 -140.000000 -3.192000 155 148 155
269.000000 -140.000000 -3.192000 154 147 156
270.000000 -140.000000 -3.192000 151 146 158
271.000000 -140.000000 -3.192000 153 146 155
272.000000 -140.000000 -3.192000 156 145 153
273.000000 -140.000000 -3.192000 153 146 154
274.000000 -140.000000 -3.192000 152 146 154
275.000000 -140.000000 -3.192000 151 147 152
276.000000 -140.000000 -3.192000 150 148 151
277.000000 -140.000000 -1.396500 148 147 151
278.000000 -140.000000 -0.997500 149 144 152
279.000000 -140.000000 -0.798000 151 143 150
280.000000 -140.000000 -0.598500 148 145 148
281.000000 -140.000000 -0.598500 148 145 147
282.000000 -140.000000 -0.798000 148 144 146
283.000000 -140.000000 -0.798000 150 143 145
284.000000 -140.000000 -0.798000 147 142 146
285.000000 -140.000000 -0.798000 143 143 146
286.000000 -140.000000 -0.798000 144 141 146
287.000000 -140.000000 -0.798000 145 140 146
288.000000 -140.000000 -0.997500 145 140 143
289.000000 -140.000000 -3.192000 145 138 145
290.000000 -140.000000 -3.192000 144 138 146
291.000000 -140.000000 -3.192000 143 138 144
292.000000 -140.000000 -3.192000 141 138 143
293.000000 -140.000000 -3.192000 140 136 144
294.000000 -140.000000 -3.192000 141 135 141
295.000000 -140.000000 -3.192000 139 136 139
296.000000 -140.000000 -3.192000 138 135 139
297.000000 -140.000000 -3.192000 136 134 138
298.000000 -140.000000 -3.192000 133 132 141
299.000000 -140.000000 -1.396500 134 131 139
300.000000 -140.000000 -0.798000 134 132 134
301.000000 -140.000000 -0.598500 132 132 134
302.000000 -140.000000 -0.598500 129 130 134
303.000000 -140.000000 -0.399000 123 124 127
304.000000 -140.000000 -0.199500 120 118 119
305.000000 -140.000000 -0.199500 124 118 119
306.000000 -140.000000 0.199500 126 118 120
307.000000 -140.000000 0.199500 123 120 121
308.000000 -140.000000 0.000000 121 120 122
309.000000 -140.000000 -0.199500 121 120 122
310.000000 -140.000000 -0.399000 122 118 121
311.000000 -140.000000 -0.399000 121 119 119
312.000000 -140.000000 -0.399000 120 119 120
313.000000 -140.000000 0.000000 123 115 123
314.000000 -140.000000 0.000000 123 117 121
315.000000 -140.000000 0.000000 120 119 121
316.000000 -140.000000 0.000000 120 118 122
317.000000 -140.000000 0.000000 121 118 120
318.000000 -140.000000 0.199500 120 116 119
319.000000 -140.000000 0.199500 115 115 121
320.000000 -140.000000 0.399000 115 114 121
321.000000 -140.000000 0.598500 117 113 120
322.000000 -140.000000 0.598500 110 105 111
63.000000 -141.000000 -0.598500 174 169 174
64.000000 -141.000000 -0.199500 171 169 172
65.000000 -141.000000 -0.199500 171 168 173
66.000000 -141.000000 0.000000 171 168 173
67.000000 -141.000000 0.000000 174 168 172
68.000000 -141.000000 0.000000 177 167 172
69.000000 -141.000000 0.000000 176 168 173
70.000000 -141.000000 0.000000 176 165 174
71.000000 -141.000000 0.000000 175 166 173
72.000000 -141.000000 -0.399000 174 166 173
73.000000 -141.000000 -0.798000 175 166 173
74.000000 -141.000000 -0.997500 175 166 172
75.000000 -141.000000 -1.197000 172 165 173
76.000000 -141.000000 -1.396500 171 165 173
77.000000 -141.000000 -3.192000 172 164 173
78.000000 -141.000000 -3.192000 173 164 172
79.000000 -141.000000 -1.396500 173 163 172
80.000000 -141.000000 -1.396500 174 164 170
81.000000 -141.000000 -1.396500 172 165 169
82.000000 -141.000000 -1.197000 172 163 170
83.000000 -141.000000 -0.997500 172 162 171
84.000000 -141.000000 -0.997500 170 163 169
85.000000 -141.000000 -0.997500 167 163 169
86.000000 -141.000000 -3.192000 165 164 167
87.000000 -141.000000 -3.192000 166 164 166
88.000000 -141.000000 -3.192000 167 163 165
89.000000 -141.000000 -3.192000 168 160 167
90.000000 -141.000000 -3.192000 167 161 166
91.000000 -141.000000 -3.192000 167 161 165
92.000000 -141.000000 -3.192000 166 160 165
93.000000 -141.000000 -1.396500 164 159 167
94.000000 -141.000000 -1.197000 165 160 165
95.000000 -141.000000 -1.197000 166 158 162
96.000000 -141.000000 -0.997500 163 157 161
97.000000 -141.000000 -0.997500 161 157 160
98.000000 -141.000000 -1.197000 164 155 160
99.000000 -141.000000 -3.192000 163 153 161
100.000000 -141.000000 -3.192000 161 154 159
101.000000 -141.000000 -3.192000 158 155 158
102.000000 -141.000000 -3.192000 155 153 158
103.000000 -141.000000 -3.192000 155 152 159
104.000000 -141.000000 -3.192000 155 151 156
105.000000 -141.000000 -3.192000 157 150 155
106.000000 -141.000000 -3.192000 155 148 155
107.000000 -141.000000 -3.192000 154 149 155
108.000000 -141.000000 -3.192000 152 147 153
109.000000 -141.000000 -3.192000 152 145 150
110.000000 -141.000000 -3.192000 151 144 149
111.000000 -141.000000 -3.192000 149 144 150
112.000000 -141.000000 -3.192000 149 142 148
113.000000 -141.000000 -3.192000 151 141 145
114.000000 -141.000000 -3.192000 150 139 141
115.000000 -141.000000 -3.192000 145 137 140
116.000000 -141.000000 -3.192000 144 135 139
117.000000 -141.000000 -3.192000 142 132 141
118.000000 -141.000000 -3.192000 137 133 137
119.000000 -141.000000 -3.192000 137 132 133
120.000000 -141.000000 -3.192000 137 130 132
121.000000 -141.000000 -3.192000 134 128 129
122.000000 -141.000000 -3.192000 128 125 128
123.000000 -141.000000 -3.192000 127 121 126
124.000000 -141.000000 -3.192000 127 119 123
125.000000 -141.000000 -3.192000 122 117 120
126.000000 -141.000000 -3.192000 120 115 117
127.000000 -141.000000 -3.192000 118 111 114
128.000000 -141.000000 -0.199500 114 111 112
129.000000 -141.000000 1.995000 112 109 108
130.000000 -141.000000 2.394000 109 106 107
131.000000 -141.000000 2.793000 106 103 105
132.000000 -141.000000 3.591000 104 100 101
133.000000 -141.000000 3.790500 89 92 94
134.000000 -141.000000 3.990000 64 83 89
135.000000 -141.000000 3.790500 60 80 89
136.000000 -141.000000 3.391500 60 80 90
137.000000 -141.000000 3.192000 61 80 90
138.000000 -141.000000 2.992500 62 81 89
139.000000 -141.000000 3.192000 63 81 88
140.000000 -141.000000 3.192000 62 81 89
141.000000 -141.000000 2.992500 60 82 87
142.000000 -141.000000 2.793000 59 81 89
143.000000 -141.000000 1.795500 61 80 88
144.000000 -141.000000 1.596000 63 80 87
145.000000 -141.000000 1.396500 56 82 88
146.000000 -141.000000 1.396500 54 80 89
147.000000 -141.000000 1.197000 56 81 89
148.000000 -141.000000 1.197000 60 81 89
149.000000 -141.000000 0.997500 61 80 88
150.000000 -141.000000 0.399000 60 81 88
151.000000 -141.000000 0.199500 59 82 89
152.000000 -141.000000 0.000000 57 81 90
153.000000 -141.000000 0.199500 61 81 89
154.000000 -141.000000 -0.199500 59 81 87
155.000000 -141.000000 0.199500 56 82 88
156.000000 -141.000000 0.000000 59 82 88
157.000000 -141.000000 0.000000 57 83 88
158.000000 -141.000000 -0.399000 58 81 89
159.000000 -141.000000 -0.997500 61 81 89
160.000000 -141.000000 -3.192000 61 83 88
161.000000 -141.000000 -3.192000 62 81 91
162.000000 -141.000000 -3.192000 61 81 92
163.000000 -141.000000 -3.192000 61 80 92
164.000000 -141.000000 -3.192000 58 82 90
165.000000 -141.000000 -3.192000 62 82 89
166.000000 -141.000000 0.000000 63 82 90
167.000000 -141.000000 0.199500 61 82 91
168.000000 -141.000000 0.598500 60 81 92
169.000000 -141.000000 -0.199500 63 82 92
170.000000 -141.000000 -0.399000 60 83 91
171.000000 -141.000000 -0.399000 57 84 89
172.000000 -141.000000 -0.399000 57 83 92
173.000000 -141.000000 -0.399000 57 81 94
174.000000 -141.000000 -0.199500 62 81 93
175.000000 -141.000000 0.000000 65 83 94
176.000000 -141.000000 0.199500 65 83 93
177.000000 -141.000000 0.598500 62 84 93
178.000000 -141.000000 0.997500 59 85 93
179.000000 -141.000000 1.197000 56 86 93
180.000000 -141.000000 1.197000 56 86 94
181.000000 -141.000000 1.197000 60 87 93
182.000000 -141.000000 1.396500 60 85 95
183.000000 -141.000000 2.194500 59 85 95
184.000000 -141.000000 2.194500 59 86 96
185.000000 -141.000000 2.593500 60 85 97
186.000000 -141.000000 2.793000 62 83 99
187.000000 -141.000000 2.793000 68 84 97
188.000000 -141.000000 2.394000 66 83 98
189.000000 -141.000000 2.194500 63 85 98
190.000000 -141.000000 2.194500 60 87 95
191.000000 -141.000000 1.995000 62 86 96
192.000000 -141.000000 2.593500 61 88 95
193.000000 -141.000000 2.793000 59 86 96
194.000000 -141.000000 2.793000 64 86 97
195.000000 -141.000000 2.394000 68 88 95
196.000000 -141.000000 1.995000 67 88 95
197.000000 -141.000000 1.795500 68 88 94
198.000000 -141.000000 1.396500 66 89 96
199.000000 -141.000000 1.396500 60 88 97
200.000000 -141.000000 2.194500 57 90 96
201.000000 -141.000000 2.194500 62 88 97
202.000000 -141.000000 2.194500 63 88 98
203.000000 -141.000000 1.795500 64 89 97
204.000000 -141.000000 1.396500 67 87 97
205.000000 -141.000000 1.197000 68 87 97
206.000000 -141.000000 1.396500 65 86 98
207.000000 -141.000000 0.997500 65 85 98
208.000000 -141.000000 0.997500 68 86 99
209.000000 -141.000000 0.598500 68 87 97
210.000000 -141.000000 0.598500 69 87 97
211.000000 -141.000000 0.399000 68 86 98
212.000000 -141.000000 0.399000 65 88 96
213.000000 -141.000000 0.399000 66 87 96
214.000000 -141.000000 0.199500 66 87 98
215.000000 -141.000000 0.199500 62 88 99
216.000000 -141.000000 0.199500 63 88 98
217.000000 -141.000000 0.199500 62 86 98
218.000000 -141.000000 0.000000 61 88 96
219.000000 -141.000000 -1.396500 64 88 97
220.000000 -141.000000 -1.396500 64 86 98
221.000000 -141.000000 -1.197000 63 86 97
222.000000 -141.000000 -0.199500 62 87 96
223.000000 -141.000000 -0.399000 63 84 98
224.000000 -141.000000 0.399000 62 85 97
225.000000 -141.000000 3.192000 59 89 94
226.000000 -141.000000 2.793000 66 88 94
227.000000 -141.000000 2.394000 67 86 96
228.000000 -141.000000 2.394000 67 86 95
229.000000 -141.000000 1.995000 69 84 96
230.000000 -141.000000 2.394000 68 85 95
231.000000 -141.000000 2.394000 65 87 93
232.000000 -141.000000 1.596000 65 87 95
233.000000 -141.000000 0.798000 67 85 97
234.000000 -141.000000 0.598500 68 84 95
235.000000 -141.000000 0.399000 63 83 96
236.000000 -141.000000 0.399000 62 84 95
237.000000 -141.000000 0.598500 66 85 95
238.000000 -141.000000 0.598500 66 84 95
239.000000 -141.000000 0.598500 64 84 96
240.000000 -141.000000 0.798000 65 86 94
241.000000 -141.000000 0.798000 64 87 93
242.000000 -141.000000 0.598500 61 86 93
243.000000 -141.000000 0.598500 63 86 91
244.000000 -141.000000 0.399000 66 84 94
245.000000 -141.000000 0.199500 67 86 94
246.000000 -141.000000 0.199500 70 88 92
247.000000 -141.000000 0.199500 69 85 94
248.000000 -141.000000 0.199500 66 84 93
249.000000 -141.000000 0.399000 69 84 93
250.000000 -141.000000 0.399000 67 84 95
251.000000 -141.000000 0.598500 70 81 98
252.000000 -141.000000 0.598500 69 82 97
253.000000 -141.000000 0.399000 68 84 93
254.000000 -141.000000 0.000000 65 84 94
255.000000 -141.000000 0.000000 65 83 93
256.000000 -141.000000 0.000000 69 82 93
257.000000 -141.000000 0.000000 67 81 94
258.000000 -141.000000 -0.199500 71 89 94
259.000000 -141.000000 -0.399000 121 127 116
260.000000 -141.000000 -0.598500 155 150 151
261.000000 -141.000000 -0.798000 158 150 157
262.000000 -141.000000 -3.192000 157 151 156
263.000000 -141.000000 -3.192000 157 152 155
264.000000 -141.000000 -3.192000 156 151 157
265.000000 -141.000000 -3.192000 157 151 154
266.000000 -141.000000 -3.192000 153 151 156
267.000000 -141.000000 -3.192000 153 148 157
268.000000 -141.000000 -3.192000 154 148 156
269.000000 -141.000000 -3.192000 155 148 154
270.000000 -141.000000 -3.192000 153 147 157
271.000000 -141.000000 -3.192000 152 149 155
272.000000 -141.000000 -3.192000 152 148 152
273.000000 -141.000000 -3.192000 152 148 152
274.000000 -141.000000 -3.192000 151 148 152
275.000000 -141.000000 -3.192000 151 147 153
276.000000 -141.000000 -1.396500 151 146 152
277.000000 -141.000000 -0.798000 147 146 151
278.000000 -141.000000 -0.798000 148 144 153
279.000000 -141.000000 -0.598500 150 143 152
280.000000 -141.000000 -0.399000 149 143 149
281.000000 -141.000000 -0.598500 148 144 147
282.000000 -141.000000 -0.598500 148 145 144
283.000000 -141.000000 -0.598500 147 143 145
284.000000 -141.000000 -0.598500 146 142 147
285.000000 -141.000000 -0.798000 142 143 145
286.000000 -141.000000 -0.798000 143 141 145
287.000000 -141.000000 -0.798000 144 138 147
288.000000 -141.000000 -0.798000 144 141 145
289.000000 -141.000000 -0.997500 141 140 146
290.000000 -141.000000 -1.197000 141 139 146
291.000000 -141.000000 -1.197000 142 137 145
292.000000 -141.000000 -3.192000 142 136 142
293.000000 -141.000000 -3.192000 142 134 142
294.000000 -141.000000 -3.192000 143 134 141
295.000000 -141.000000 -3.192000 141 135 138
296.000000 -141.000000 -3.192000 139 134 137
297.000000 -141.000000 -3.192000 136 134 138
298.000000 -141.000000 -3.192000 132 132 140
299.000000 -141.000000 -1.396500 134 130 140
300.000000 -141.000000 -0.598500 134 131 134
301.000000 -141.000000 -0.598500 131 132 133
302.000000 -141.000000 -0.399000 130 129 135
303.000000 -141.000000 -0.399000 125 123 129
304.000000 -141.000000 -0.199500 122 118 121
305.000000 -141.000000 -0.199500 124 119 117
306.000000 -141.000000 0.199500 124 119 120
307.000000 -141.000000 0.199500 122 119 122
308.000000 -141.000000 0.000000 123 119 123
309.000000 -141.000000 -0.199500 123 119 124
310.000000 -141.000000 -0.399000 121 118 123
311.000000 -141.000000 -0.598500 123 119 118
312.000000 -141.000000 -0.399000 121 120 121
313.000000 -141.000000 -0.199500 123 117 123
314.000000 -141.000000 0.000000 124 116 122
315.000000 -141.000000 0.000000 121 118 122
316.000000 -141.000000 0.000000 121 119 122
317.000000 -141.000000 0.000000 120 117 121
318.000000 -141.000000 0.199500 120 116 120
319.000000 -141.000000 0.199500 117 115 120
320.000000 -141.000000 0.399000 115 115 120
321.000000 -141.000000 0.598500 118 112 121
322.000000 -141.000000 0.598500 110 104 111
63.000000 -142.000000 -0.598500 175 168 173
64.000000 -142.000000 -0.199500 173 167 173
65.000000 -142.000000 -0.199500 173 166 174
66.000000 -142.000000 0.000000 175 167 173
67.000000 -142.000000 0.000000 176 167 172
68.000000 -142.000000 0.000000 176 168 172
69.000000 -142.000000 -0.199500 175 167 172
70.000000 -142.000000 -0.199500 173 167 173
71.000000 -142.000000 -0.199500 173 168 172
72.000000 -142.000000 -0.598500 172 166 174
73.000000 -142.000000 -0.997500 174 166 174
74.000000 -142.000000 -1.197000 174 167 171
75.000000 -142.000000 -1.396500 172 165 172
76.000000 -142.000000 -3.192000 171 166 173
77.000000 -142.000000 -3.192000 173 165 171
78.000000 -142.000000 -3.192000 174 165 170
79.000000 -142.000000 -1.396500 174 165 170
80.000000 -142.000000 -1.197000 174 165 169
81.000000 -142.000000 -1.197000 174 165 169
82.000000 -142.000000 -0.997500 173 163 170
83.000000 -142.000000 -0.997500 172 162 170
84.000000 -142.000000 -0.997500 169 163 168
85.000000 -142.000000 -1.197000 167 162 170
86.000000 -142.000000 -3.192000 167 162 169
87.000000 -142.000000 -3.192000 169 163 166
88.000000 -142.000000 -3.192000 168 162 166
89.000000 -142.000000 -3.192000 168 160 166
90.000000 -142.000000 -3.192000 166 161 166
91.000000 -142.000000 -3.192000 166 161 163
92.000000 -142.000000 -3.192000 164 161 163
93.000000 -142.000000 -3.192000 164 160 163
94.000000 -142.000000 -1.197000 165 160 163
95.000000 -142.000000 -1.197000 164 157 162
96.000000 -142.000000 -0.997500 162 155 163
97.000000 -142.000000 -0.997500 160 156 162
98.000000 -142.000000 -0.997500 160 157 160
99.000000 -142.000000 -3.192000 161 156 159
100.000000 -142.000000 -3.192000 160 155 157
101.000000 -142.000000 -3.192000 159 155 157
102.000000 -142.000000 -3.192000 159 152 158
103.000000 -142.000000 -3.192000 159 151 158
104.000000 -142.000000 -3.192000 158 151 156
105.000000 -142.000000 -3.192000 156 150 156
106.000000 -142.000000 -3.192000 155 148 156
107.000000 -142.000000 -3.192000 154 150 152
108.000000 -142.000000 -3.192000 152 148 151
109.000000 -142.000000 -3.192000 152 145 152
110.000000 -142.000000 -3.192000 150 145 151
111.000000 -142.000000 -3.192000 147 145 151
112.000000 -142.000000 -3.192000 147 143 147
113.000000 -142.000000 -3.192000 150 139 144
114.000000 -142.000000 -3.192000 149 137 142
115.000000 -142.000000 -3.192000 144 137 142
116.000000 -142.000000 -3.192000 144 134 141
117.000000 -142.000000 -3.192000 142 132 140
118.000000 -142.000000 -3.192000 139 132 137
119.000000 -142.000000 -3.192000 137 132 133
120.000000 -142.000000 -3.192000 136 130 132
121.000000 -142.000000 -3.192000 134 127 130
122.000000 -142.000000 -3.192000 131 123 131
123.000000 -142.000000 -3.192000 128 119 128
124.000000 -142.000000 -3.192000 126 118 123
125.000000 -142.000000 -3.192000 120 117 120
126.000000 -142.000000 -3.192000 120 116 115
127.000000 -142.000000 -3.192000 120 110 115
128.000000 -142.000000 -0.399000 118 108 112
129.000000 -142.000000 1.596000 115 108 108
130.000000 -142.000000 2.394000 110 106 107
131.000000 -142.000000 2.593500 106 102 105
132.000000 -142.000000 3.391500 106 99 101
133.000000 -142.000000 3.790500 96 91 92
134.000000 -142.000000 3.790500 71 84 86
135.000000 -142.000000 3.591000 58 81 87
136.000000 -142.000000 3.391500 57 80 90
137.000000 -142.000000 3.192000 54 79 91
138.000000 -142.000000 2.992500 56 82 89
139.000000 -142.000000 3.192000 61 81 89
140.000000 -142.000000 3.192000 64 79 91
141.000000 -142.000000 2.992500 63 79 89
142.000000 -142.000000 2.793000 63 79 90
143.000000 -142.000000 2.394000 62 80 88
144.000000 -142.000000 1.596000 63 80 86
145.000000 -142.000000 1.596000 60 80 89
146.000000 -142.000000 1.396500 59 78 91
147.000000 -142.000000 1.197000 61 80 89
148.000000 -142.000000 0.997500 60 81 88
149.000000 -142.000000 0.598500 60 80 88
150.000000 -142.000000 0.598500 61 81 87
151.000000 -142.000000 0.199500 58 82 87
152.000000 -142.000000 0.000000 57 83 87
153.000000 -142.000000 0.199500 64 81 86
154.000000 -142.000000 0.199500 62 79 87
155.000000 -142.000000 0.399000 59 79 89
156.000000 -142.000000 -0.199500 62 79 90
157.000000 -142.000000 0.000000 59 82 88
158.000000 -142.000000 -0.399000 59 79 88
159.000000 -142.000000 -0.598500 59 80 87
160.000000 -142.000000 -0.997500 56 82 88
161.000000 -142.000000 -3.192000 59 82 89
162.000000 -142.000000 -3.192000 61 80 90
163.000000 -142.000000 -3.192000 60 80 91
164.000000 -142.000000 -3.192000 58 81 90
165.000000 -142.000000 -3.192000 60 80 91
166.000000 -142.000000 0.000000 61 81 91
167.000000 -142.000000 1.995000 62 81 89
168.000000 -142.000000 1.995000 60 80 89
169.000000 -142.000000 0.598500 60 81 91
170.000000 -142.000000 0.000000 62 81 91
171.000000 -142.000000 -0.199500 61 81 90
172.000000 -142.000000 -0.399000 61 81 92
173.000000 -142.000000 -0.199500 64 80 92
174.000000 -142.000000 0.199500 68 79 92
175.000000 -142.000000 0.199500 66 80 92
176.000000 -142.000000 0.798000 61 81 92
177.000000 -142.000000 1.396500 57 81 92
178.000000 -142.000000 1.995000 62 82 93
179.000000 -142.000000 2.194500 63 83 93
180.000000 -142.000000 2.194500 62 83 92
181.000000 -142.000000 1.995000 64 83 94
182.000000 -142.000000 2.194500 61 81 95
183.000000 -142.000000 2.194500 62 82 95
184.000000 -142.000000 2.394000 60 82 95
185.000000 -142.000000 2.593500 62 83 95
186.000000 -142.000000 2.793000 61 82 97
187.000000 -142.000000 2.793000 64 81 96
188.000000 -142.000000 2.394000 62 81 97
189.000000 -142.000000 2.394000 61 82 97
190.000000 -142.000000 2.394000 60 84 96
191.000000 -142.000000 2.593500 63 83 97
192.000000 -142.000000 2.793000 61 86 94
193.000000 -142.000000 2.992500 58 85 95
194.000000 -142.000000 2.992500 62 86 95
195.000000 -142.000000 2.793000 66 86 94
196.000000 -142.000000 2.194500 66 87 94
197.000000 -142.000000 2.194500 66 87 94
198.000000 -142.000000 2.194500 64 87 95
199.000000 -142.000000 2.194500 58 87 95
200.000000 -142.000000 2.194500 57 86 97
201.000000 -142.000000 2.194500 64 85 97
202.000000 -142.000000 2.194500 63 85 98
203.000000 -142.000000 1.795500 63 86 97
204.000000 -142.000000 1.396500 64 85 96
205.000000 -142.000000 1.396500 64 85 97
206.000000 -142.000000 1.396500 61 86 97
207.000000 -142.000000 1.396500 61 88 95
208.000000 -142.000000 1.396500 61 87 97
209.000000 -142.000000 0.997500 63 85 97
210.000000 -142.000000 0.997500 69 85 96
211.000000 -142.000000 0.997500 65 85 97
212.000000 -142.000000 0.798000 62 86 95
213.000000 -142.000000 0.798000 64 86 95
214.000000 -142.000000 0.598500 67 85 98
215.000000 -142.000000 0.598500 64 86 99
216.000000 -142.000000 0.798000 65 85 97
217.000000 -142.000000 0.798000 66 84 98
218.000000 -142.000000 0.399000 65 86 96
219.000000 -142.000000 0.199500 66 84 97
220.000000 -142.000000 0.000000 64 85 98
221.000000 -142.000000 0.000000 66 85 94
222.000000 -142.000000 0.399000 64 85 95
223.000000 -142.000000 2.793000 62 84 96
224.000000 -142.000000 3.192000 60 85 96
225.000000 -142.000000 3.192000 57 86 95
226.000000 -142.000000 3.192000 63 85 95
227.000000 -142.000000 3.192000 64 86 96
228.000000 -142.000000 2.394000 64 86 95
229.000000 -142.000000 2.394000 66 84 95
230.000000 -142.000000 2.394000 62 84 95
231.000000 -142.000000 2.394000 62 85 94
232.000000 -142.000000 2.394000 65 85 95
233.000000 -142.000000 1.197000 67 84 95
234.000000 -142.000000 0.798000 69 83 95
235.000000 -142.000000 0.598500 66 82 95
236.000000 -142.000000 0.598500 64 82 95
237.000000 -142.000000 0.598500 68 83 96
238.000000 -142.000000 0.798000 67 85 93
239.000000 -142.000000 0.798000 64 84 95
240.000000 -142.000000 0.798000 65 85 94
241.000000 -142.000000 0.798000 67 85 91
242.000000 -142.000000 0.798000 64 85 92
243.000000 -142.000000 0.598500 61 84 94
244.000000 -142.000000 0.399000 65 84 92
245.000000 -142.000000 0.199500 69 84 94
246.000000 -142.000000 0.199500 69 84 95
247.000000 -142.000000 0.399000 69 83 94
248.000000 -142.000000 0.399000 66 83 91
249.000000 -142.000000 0.399000 65 83 93
250.000000 -142.000000 0.598500 66 81 96
251.000000 -142.000000 0.798000 67 79 99
252.000000 -142.000000 0.798000 66 82 95
253.000000 -142.000000 0.798000 68 83 94
254.000000 -142.000000 0.399000 67 81 97
255.000000 -142.000000 0.000000 66 82 94
256.000000 -142.000000 0.000000 66 83 93
257.000000 -142.000000 -0.199500 67 83 94
258.000000 -142.000000 -0.399000 76 88 96
259.000000 -142.000000 -0.598500 124 127 123
260.000000 -142.000000 -0.598500 155 150 153
261.000000 -142.000000 -0.798000 156 152 156
262.000000 -142.000000 -3.192000 157 152 155
263.000000 -142.000000 -3.192000 157 151 155
264.000000 -142.000000 -3.192000 156 150 158
265.000000 -142.000000 -3.192000 157 148 157
266.000000 -142.000000 -3.192000 155 149 157
267.000000 -142.000000 -3.192000 154 148 158
268.000000 -142.000000 -3.192000 153 148 157
269.000000 -142.000000 -3.192000 155 148 155
270.000000 -142.000000 -3.192000 154 148 157
271.000000 -142.000000 -3.192000 151 149 156
272.000000 -142.000000 -3.192000 151 147 155
273.000000 -142.000000 -3.192000 153 147 154
274.000000 -142.000000 -3.192000 152 147 153
275.000000 -142.000000 -1.197000 149 146 154
276.000000 -142.000000 -0.798000 150 145 154
277.000000 -142.000000 -0.598500 149 145 152
278.000000 -142.000000 -0.399000 149 144 151
279.000000 -142.000000 -0.399000 150 144 149
280.000000 -142.000000 -0.399000 151 143 149
281.000000 -142.000000 -0.399000 148 142 149
282.000000 -142.000000 -0.399000 146 143 148
283.000000 -142.000000 -0.598500 146 142 147
284.000000 -142.000000 -0.598500 147 142 147
285.000000 -142.000000 -0.598500 146 143 145
286.000000 -142.000000 -0.798000 145 141 145
287.000000 -142.000000 -0.798000 144 138 147
288.000000 -142.000000 -0.798000 142 138 146
289.000000 -142.000000 -0.798000 140 137 147
290.000000 -142.000000 -0.997500 142 139 145
291.000000 -142.000000 -0.997500 142 138 144
292.000000 -142.000000 -1.197000 142 137 142
293.000000 -142.000000 -1.396500 142 136 141
294.000000 -142.000000 -3.192000 142 134 141
295.000000 -142.000000 -3.192000 141 133 140
296.000000 -142.000000 -3.192000 139 134 138
297.000000 -142.000000 -3.192000 136 135 137
298.000000 -142.000000 -1.396500 134 134 137
299.000000 -142.000000 -1.197000 135 131 138
300.000000 -142.000000 -0.598500 135 130 136
301.000000 -142.000000 -0.399000 133 131 133
302.000000 -142.000000 -0.399000 133 129 132
303.000000 -142.000000 -0.199500 127 123 129
304.000000 -142.000000 -0.199500 122 117 122
305.000000 -142.000000 0.000000 124 117 120
306.000000 -142.000000 0.199500 122 120 120
307.000000 -142.000000 0.199500 122 118 123
308.000000 -142.000000 0.000000 125 117 124
309.000000 -142.000000 -0.199500 123 118 125
310.000000 -142.000000 -0.399000 122 117 125
311.000000 -142.000000 -0.598500 123 116 122
312.000000 -142.000000 -0.598500 122 117 123
313.000000 -142.000000 -0.399000 126 114 123
314.000000 -142.000000 -0.199500 124 114 122
315.000000 -142.000000 -0.199500 122 117 121
316.000000 -142.000000 0.000000 122 118 121
317.000000 -142.000000 0.000000 120 116 123
318.000000 -142.000000 0.199500 119 115 121
319.000000 -142.000000 0.199500 118 116 119
320.000000 -142.000000 0.399000 120 113 119
321.000000 -142.000000 0.598500 119 111 122
322.000000 -142.000000 0.598500 107 105 111
63.000000 -143.000000 -0.399000 176 168 172
64.000000 -143.000000 -0.199500 173 166 175
65.000000 -143.000000 -0.199500 173 167 174
66.000000 -143.000000 0.000000 174 169 172
67.000000 -143.000000 0.000000 175 168 172
68.000000 -143.000000 -0.199500 174 166 174
69.000000 -143.000000 -0.598500 173 165 173
70.000000 -143.000000 -0.598500 172 167 172
71.000000 -143.000000 -0.598500 173 168 170
72.000000 -143.000000 -0.997500 171 166 172
73.000000 -143.000000 -3.192000 172 164 174
74.000000 -143.000000 -3.192000 173 167 171
75.000000 -143.000000 -3.192000 171 167 171
76.000000 -143.000000 -3.192000 170 166 172
77.000000 -143.000000 -3.192000 169 166 172
78.000000 -143.000000 -3.192000 172 165 170
79.000000 -143.000000 -1.396500 171 165 168
80.000000 -143.000000 -1.197000 170 165 168
81.000000 -143.000000 -1.197000 172 165 169
82.000000 -143.000000 -0.997500 173 163 168
83.000000 -143.000000 -0.997500 171 162 168
84.000000 -143.000000 -0.997500 168 162 169
85.000000 -143.000000 -1.197000 166 163 170
86.000000 -143.000000 -3.192000 168 161 170
87.000000 -143.000000 -3.192000 170 161 168
88.000000 -143.000000 -3.192000 169 162 167
89.000000 -143.000000 -3.192000 168 160 166
90.000000 -143.000000 -3.192000 164 160 167
91.000000 -143.000000 -3.192000 164 160 165
92.000000 -143.000000 -3.192000 165 159 164
93.000000 -143.000000 -3.192000 167 158 163
94.000000 -143.000000 -1.396500 164 157 164
95.000000 -143.000000 -1.197000 164 155 164
96.000000 -143.000000 -0.997500 165 153 164
97.000000 -143.000000 -0.997500 164 155 162
98.000000 -143.000000 -0.997500 161 156 160
99.000000 -143.000000 -3.192000 160 157 159
100.000000 -143.000000 -3.192000 161 156 158
101.000000 -143.000000 -3.192000 161 155 156
102.000000 -143.000000 -3.192000 162 153 155
103.000000 -143.000000 -3.192000 162 150 157
104.000000 -143.000000 -3.192000 159 151 155
105.000000 -143.000000 -3.192000 156 150 155
106.000000 -143.000000 -3.192000 157 149 154
107.000000 -143.000000 -3.192000 156 149 151
108.000000 -143.000000 -3.192000 152 148 151
109.000000 -143.000000 -3.192000 151 146 151
110.000000 -143.000000 -3.192000 149 145 151
111.000000 -143.000000 -3.192000 146 143 150
112.000000 -143.000000 -3.192000 146 140 146
113.000000 -143.000000 -3.192000 146 137 144
114.000000 -143.000000 -3.192000 145 137 143
115.000000 -143.000000 -3.192000 146 137 141
116.000000 -143.000000 -3.192000 145 135 140
117.000000 -143.000000 -3.192000 142 133 138
118.000000 -143.000000 -3.192000 139 132 137
119.000000 -143.000000 -3.192000 136 131 135
120.000000 -143.000000 -3.192000 135 128 133
121.000000 -143.000000 -3.192000 134 125 133
122.000000 -143.000000 -3.192000 131 121 132
123.000000 -143.000000 -3.192000 127 120 127
124.000000 -143.000000 -3.192000 125 120 123
125.000000 -143.000000 -3.192000 121 119 121
126.000000 -143.000000 -3.192000 117 116 117
127.000000 -143.000000 -3.192000 117 112 115
128.000000 -143.000000 -0.598500 117 109 112
129.000000 -143.000000 1.596000 112 108 110
130.000000 -143.000000 2.394000 108 105 109
131.000000 -143.000000 2.593500 106 101 106
132.000000 -143.000000 3.391500 105 100 101
133.000000 -143.000000 3.391500 97 92 92
134.000000 -143.000000 3.591000 72 82 87
135.000000 -143.000000 3.391500 60 82 88
136.000000 -143.000000 3.391500 57 80 89
137.000000 -143.000000 3.192000 56 80 89
138.000000 -143.000000 2.992500 56 84 87
139.000000 -143.000000 3.192000 59 83 88
140.000000 -143.000000 3.192000 62 80 90
141.000000 -143.000000 3.192000 65 79 89
142.000000 -143.000000 2.992500 62 80 89
143.000000 -143.000000 2.394000 61 80 88
144.000000 -143.000000 2.394000 61 79 87
145.000000 -143.000000 2.194500 61 78 90
146.000000 -143.000000 1.995000 60 78 90
147.000000 -143.000000 1.197000 59 80 88
148.000000 -143.000000 0.997500 60 81 85
149.000000 -143.000000 0.598500 58 82 85
150.000000 -143.000000 0.598500 52 81 87
151.000000 -143.000000 0.598500 54 79 89
152.000000 -143.000000 0.997500 56 78 89
153.000000 -143.000000 1.995000 60 79 88
154.000000 -143.000000 1.995000 59 79 88
155.000000 -143.000000 1.396500 58 78 89
156.000000 -143.000000 0.199500 61 79 90
157.000000 -143.000000 0.000000 63 80 88
158.000000 -143.000000 -0.199500 59 79 86
159.000000 -143.000000 -0.199500 57 80 87
160.000000 -143.000000 -0.798000 54 80 89
161.000000 -143.000000 -0.997500 59 80 88
162.000000 -143.000000 -3.192000 59 78 89
163.000000 -143.000000 -3.192000 57 77 91
164.000000 -143.000000 -3.192000 55 79 90
165.000000 -143.000000 -0.199500 52 81 90
166.000000 -143.000000 1.197000 56 81 89
167.000000 -143.000000 2.194500 62 80 89
168.000000 -143.000000 2.793000 57 81 88
169.000000 -143.000000 2.593500 57 80 89
170.000000 -143.000000 1.795500 64 79 89
171.000000 -143.000000 0.598500 58 81 89
172.000000 -143.000000 0.399000 56 82 90
173.000000 -143.000000 0.399000 62 81 89
174.000000 -143.000000 0.798000 63 81 90
175.000000 -143.000000 0.997500 61 82 90
176.000000 -143.000000 1.995000 58 82 91
177.000000 -143.000000 2.394000 58 80 94
178.000000 -143.000000 2.992500 61 79 94
179.000000 -143.000000 3.192000 63 81 93
180.000000 -143.000000 3.192000 60 84 90
181.000000 -143.000000 3.192000 64 83 91
182.000000 -143.000000 3.192000 61 81 93
183.000000 -143.000000 2.992500 60 82 92
184.000000 -143.000000 2.992500 63 80 92
185.000000 -143.000000 2.793000 63 82 91
186.000000 -143.000000 2.793000 62 82 91
187.000000 -143.000000 2.793000 60 82 93
188.000000 -143.000000 2.793000 59 82 95
189.000000 -143.000000 3.192000 62 83 93
190.000000 -143.000000 3.391500 62 83 91
191.000000 -143.000000 3.790500 64 82 94
192.000000 -143.000000 3.990000 66 85 92
193.000000 -143.000000 3.990000 63 83 94
194.000000 -143.000000 3.591000 60 84 93
195.000000 -143.000000 3.192000 58 84 94
196.000000 -143.000000 3.192000 61 84 95
197.000000 -143.000000 3.192000 63 87 92
198.000000 -143.000000 3.192000 62 86 93
199.000000 -143.000000 3.192000 59 83 94
200.000000 -143.000000 3.192000 58 83 96
201.000000 -143.000000 3.192000 64 83 96
202.000000 -143.000000 3.192000 59 83 97
203.000000 -143.000000 2.394000 60 83 98
204.000000 -143.000000 2.194500 61 85 95
205.000000 -143.000000 2.194500 60 84 96
206.000000 -143.000000 2.194500 61 83 97
207.000000 -143.000000 2.793000 58 87 94
208.000000 -143.000000 2.793000 59 87 94
209.000000 -143.000000 2.793000 63 85 94
210.000000 -143.000000 2.793000 63 86 93
211.000000 -143.000000 2.992500 63 85 94
212.000000 -143.000000 2.992500 63 85 95
213.000000 -143.000000 2.992500 65 87 93
214.000000 -143.000000 2.793000 64 85 96
215.000000 -143.000000 2.793000 64 82 100
216.000000 -143.000000 2.992500 63 83 96
217.000000 -143.000000 3.192000 64 84 94
218.000000 -143.000000 3.192000 62 85 93
219.000000 -143.000000 3.192000 60 83 96
220.000000 -143.000000 3.391500 60 84 96
221.000000 -143.000000 3.591000 62 84 94
222.000000 -143.000000 3.591000 62 82 96
223.000000 -143.000000 3.591000 60 83 95
224.000000 -143.000000 3.591000 55 86 94
225.000000 -143.000000 3.591000 55 85 95
226.000000 -143.000000 3.591000 62 80 99
227.000000 -143.000000 3.192000 65 82 97
228.000000 -143.000000 3.192000 62 84 95
229.000000 -143.000000 3.192000 61 84 94
230.000000 -143.000000 3.192000 57 84 94
231.000000 -143.000000 3.192000 58 83 93
232.000000 -143.000000 3.192000 63 83 93
233.000000 -143.000000 2.394000 66 84 92
234.000000 -143.000000 0.798000 63 84 93
235.000000 -143.000000 0.598500 63 82 94
236.000000 -143.000000 0.598500 61 81 95
237.000000 -143.000000 0.798000 62 82 94
238.000000 -143.000000 0.798000 59 85 92
239.000000 -143.000000 0.798000 61 86 94
240.000000 -143.000000 0.798000 64 86 93
241.000000 -143.000000 0.798000 65 86 90
242.000000 -143.000000 0.598500 64 85 91
243.000000 -143.000000 0.399000 59 83 94
244.000000 -143.000000 0.199500 64 83 92
245.000000 -143.000000 0.199500 67 83 93
246.000000 -143.000000 0.199500 69 81 95
247.000000 -143.000000 0.399000 66 82 93
248.000000 -143.000000 0.399000 60 85 92
249.000000 -143.000000 0.598500 57 85 92
250.000000 -143.000000 0.798000 61 82 94
251.000000 -143.000000 0.798000 62 80 94
252.000000 -143.000000 0.798000 61 83 92
253.000000 -143.000000 0.798000 64 82 95
254.000000 -143.000000 0.598500 67 81 96
255.000000 -143.000000 0.199500 67 82 93
256.000000 -143.000000 0.000000 62 84 92
257.000000 -143.000000 -0.199500 63 86 91
258.000000 -143.000000 -0.399000 77 92 94
259.000000 -143.000000 -0.598500 125 130 127
260.000000 -143.000000 -0.798000 154 151 153
261.000000 -143.000000 -0.798000 156 153 156
262.000000 -143.000000 -3.192000 156 151 156
263.000000 -143.000000 -3.192000 155 151 156
264.000000 -143.000000 -3.192000 157 150 157
265.000000 -143.000000 -3.192000 157 147 158
266.000000 -143.000000 -3.192000 156 147 158
267.000000 -143.000000 -3.192000 154 148 157
268.000000 -143.000000 -3.192000 153 148 157
269.000000 -143.000000 -3.192000 152 147 157
270.000000 -143.000000 -3.192000 151 148 156
271.000000 -143.000000 -3.192000 152 149 154
272.000000 -143.000000 -3.192000 153 147 154
273.000000 -143.000000 -3.192000 153 146 154
274.000000 -143.000000 -3.192000 153 144 154
275.000000 -143.000000 -0.798000 150 143 156
276.000000 -143.000000 -0.598500 152 144 154
277.000000 -143.000000 -0.399000 149 145 152
278.000000 -143.000000 -0.399000 148 144 151
279.000000 -143.000000 -0.399000 149 144 149
280.000000 -143.000000 -0.399000 151 143 148
281.000000 -143.000000 -0.399000 150 142 150
282.000000 -143.000000 -0.399000 144 144 150
283.000000 -143.000000 -0.399000 144 143 149
284.000000 -143.000000 -0.399000 148 141 147
285.000000 -143.000000 -0.598500 146 140 149
286.000000 -143.000000 -0.598500 143 141 147
287.000000 -143.000000 -0.598500 143 140 146
288.000000 -143.000000 -0.598500 141 138 146
289.000000 -143.000000 -0.598500 142 137 146
290.000000 -143.000000 -0.598500 143 139 144
291.000000 -143.000000 -0.598500 142 139 143
292.000000 -143.000000 -0.997500 141 138 143
293.000000 -143.000000 -1.197000 140 138 141
294.000000 -143.000000 -1.396500 140 136 141
295.000000 -143.000000 -3.192000 139 134 142
296.000000 -143.000000 -3.192000 139 133 140
297.000000 -143.000000 -1.396500 137 134 137
298.000000 -143.000000 -1.396500 137 133 136
299.000000 -143.000000 -1.197000 135 132 137
300.000000 -143.000000 -0.399000 132 130 138
301.000000 -143.000000 -0.399000 132 130 135
302.000000 -143.000000 -0.199500 132 129 133
303.000000 -143.000000 -0.199500 127 123 128
304.000000 -143.000000 0.000000 122 117 121
305.000000 -143.000000 0.000000 123 115 122
306.000000 -143.000000 0.199500 121 118 121
307.000000 -143.000000 0.399000 124 117 122
308.000000 -143.000000 0.199500 122 117 122
309.000000 -143.000000 0.000000 123 120 122
310.000000 -143.000000 -0.399000 124 117 125
311.000000 -143.000000 -0.598500 122 114 125
312.000000 -143.000000 -0.399000 123 116 124
313.000000 -143.000000 -0.199500 124 115 123
314.000000 -143.000000 -0.199500 121 115 122
315.000000 -143.000000 -0.199500 121 119 119
316.000000 -143.000000 -0.199500 123 118 120
317.000000 -143.000000 0.000000 119 116 123
318.000000 -143.000000 0.000000 116 114 124
319.000000 -143.000000 0.199500 120 114 120
320.000000 -143.000000 0.399000 122 112 118
321.000000 -143.000000 0.598500 118 113 119
322.000000 -143.000000 0.598500 106 106 109
63.000000 -144.000000 -0.199500 173 169 173
64.000000 -144.000000 -0.199500 172 167 175
65.000000 -144.000000 -0.199500 172 168 174
66.000000 -144.000000 0.000000 173 169 171
67.000000 -144.000000 0.000000 174 167 172
68.000000 -144.000000 -0.598500 174 166 174
69.000000 -144.000000 -0.997500 173 165 173
70.000000 -144.000000 -0.997500 174 166 171
71.000000 -144.000000 -1.197000 174 168 170
72.000000 -144.000000 -3.192000 172 166 173
73.000000 -144.000000 -3.192000 172 164 173
74.000000 -144.000000 -3.192000 170 165 172
75.000000 -144.000000 -3.192000 169 165 173
76.000000 -144.000000 -3.192000 170 165 171
77.000000 -144.000000 -3.192000 166 166 172
78.000000 -144.000000 -1.396500 169 165 171
79.000000 -144.000000 -1.396500 170 163 170
80.000000 -144.000000 -1.197000 170 164 170
81.000000 -144.000000 -1.197000 171 163 170
82.000000 -144.000000 -1.197000 171 162 168
83.000000 -144.000000 -1.197000 171 162 168
84.000000 -144.000000 -1.197000 169 162 170
85.000000 -144.000000 -3.192000 169 163 170
86.000000 -144.000000 -3.192000 169 161 169
87.000000 -144.000000 -3.192000 169 161 167
88.000000 -144.000000 -3.192000 167 163 164
89.000000 -144.000000 -3.192000 165 163 164
90.000000 -144.000000 -3.192000 165 161 166
91.000000 -144.000000 -3.192000 167 161 166
92.000000 -144.000000 -3.192000 167 158 165
93.000000 -144.000000 -3.192000 168 157 164
94.000000 -144.000000 -3.192000 167 157 163
95.000000 -144.000000 -1.396500 165 155 164
96.000000 -144.000000 -0.997500 165 156 162
97.000000 -144.000000 -0.997500 164 156 161
98.000000 -144.000000 -0.997500 160 155 160
99.000000 -144.000000 -3.192000 161 154 161
100.000000 -144.000000 -3.192000 162 154 159
101.000000 -144.000000 -3.192000 162 154 157
102.000000 -144.000000 -3.192000 161 152 156
103.000000 -144.000000 -3.192000 159 151 156
104.000000 -144.000000 -3.192000 157 150 155
105.000000 -144.000000 -3.192000 156 149 155
106.000000 -144.000000 -3.192000 156 148 155
107.000000 -144.000000 -3.192000 155 148 153
108.000000 -144.000000 -3.192000 152 148 150
109.000000 -144.000000 -3.192000 153 147 149
110.000000 -144.000000 -3.192000 151 145 149
111.000000 -144.000000 -3.192000 148 144 148
112.000000 -144.000000 -3.192000 148 141 144
113.000000 -144.000000 -3.192000 146 138 144
114.000000 -144.000000 -3.192000 144 140 143
115.000000 -144.000000 -3.192000 145 138 141
116.000000 -144.000000 -3.192000 143 136 139
117.000000 -144.000000 -3.192000 140 135 135
118.000000 -144.000000 -3.192000 138 133 135
119.000000 -144.000000 -3.192000 136 131 135
120.000000 -144.000000 -3.192000 136 129 133
121.000000 -144.000000 -3.192000 133 125 132
122.000000 -144.000000 -3.192000 131 123 129
123.000000 -144.000000 -3.192000 129 122 124
124.000000 -144.000000 -3.192000 125 121 122
125.000000 -144.000000 -3.192000 122 118 121
126.000000 -144.000000 -3.192000 116 115 118
127.000000 -144.000000 -3.192000 115 112 117
128.000000 -144.000000 -0.598500 112 110 115
129.000000 -144.000000 1.197000 111 108 112
130.000000 -144.000000 2.394000 110 103 109
131.000000 -144.000000 2.593500 107 99 107
132.000000 -144.000000 3.391500 103 99 101
133.000000 -144.000000 3.391500 93 94 94
134.000000 -144.000000 3.591000 71 83 90
135.000000 -144.000000 3.591000 64 80 90
136.000000 -144.000000 3.391500 60 79 92
137.000000 -144.000000 3.192000 61 80 91
138.000000 -144.000000 3.192000 62 82 88
139.000000 -144.000000 3.192000 62 81 87
140.000000 -144.000000 3.192000 61 81 89
141.000000 -144.000000 3.192000 59 81 89
142.000000 -144.000000 2.992500 55 80 90
143.000000 -144.000000 2.394000 60 80 87
144.000000 -144.000000 2.394000 59 80 86
145.000000 -144.000000 2.394000 54 80 88
146.000000 -144.000000 1.995000 54 81 89
147.000000 -144.000000 1.995000 53 81 88
148.000000 -144.000000 0.997500 58 80 86
149.000000 -144.000000 0.798000 58 82 85
150.000000 -144.000000 0.798000 55 83 85
151.000000 -144.000000 0.798000 58 78 89
152.000000 -144.000000 1.795500 59 77 88
153.000000 -144.000000 1.995000 57 78 89
154.000000 -144.000000 1.995000 55 78 89
155.000000 -144.000000 1.396500 58 79 89
156.000000 -144.000000 0.798000 61 80 88
157.000000 -144.000000 0.199500 62 79 89
158.000000 -144.000000 0.000000 58 80 87
159.000000 -144.000000 0.000000 53 80 88
160.000000 -144.000000 -0.199500 53 81 86
161.000000 -144.000000 -0.598500 61 80 85
162.000000 -144.000000 -0.798000 59 79 88
163.000000 -144.000000 -0.798000 58 77 91
164.000000 -144.000000 -0.199500 55 79 90
165.000000 -144.000000 0.199500 50 81 87
166.000000 -144.000000 1.197000 50 82 88
167.000000 -144.000000 2.793000 57 80 90
168.000000 -144.000000 2.793000 58 81 89
169.000000 -144.000000 2.793000 59 79 89
170.000000 -144.000000 2.793000 62 78 89
171.000000 -144.000000 2.194500 55 78 89
172.000000 -144.000000 0.997500 52 80 90
173.000000 -144.000000 0.997500 57 80 89
174.000000 -144.000000 1.197000 56 81 89
175.000000 -144.000000 1.995000 58 83 87
176.000000 -144.000000 2.394000 62 81 88
177.000000 -144.000000 2.992500 62 79 91
178.000000 -144.000000 3.192000 59 80 92
179.000000 -144.000000 3.391500 60 81 89
180.000000 -144.000000 3.591000 60 81 90
181.000000 -144.000000 3.591000 62 83 90
182.000000 -144.000000 3.591000 59 82 89
183.000000 -144.000000 3.391500 56 81 91
184.000000 -144.000000 3.192000 62 81 90
185.000000 -144.000000 3.192000 61 82 89
186.000000 -144.000000 3.192000 62 82 90
187.000000 -144.000000 3.192000 58 82 91
188.000000 -144.000000 3.192000 58 83 91
189.000000 -144.000000 3.790500 59 81 93
190.000000 -144.000000 4.189500 59 82 91
191.000000 -144.000000 5.187000 63 83 91
192.000000 -144.000000 5.187000 63 83 91
193.000000 -144.000000 5.386500 61 83 93
194.000000 -144.000000 4.987500 59 82 94
195.000000 -144.000000 3.990000 56 81 95
196.000000 -144.000000 3.790500 56 83 93
197.000000 -144.000000 3.790500 58 86 91
198.000000 -144.000000 3.990000 60 84 92
199.000000 -144.000000 3.990000 59 81 94
200.000000 -144.000000 3.990000 57 82 96
201.000000 -144.000000 3.990000 62 83 95
202.000000 -144.000000 3.790500 58 84 93
203.000000 -144.000000 3.192000 57 85 92
204.000000 -144.000000 3.192000 61 84 93
205.000000 -144.000000 3.192000 60 83 95
206.000000 -144.000000 3.192000 62 83 95
207.000000 -144.000000 3.192000 58 83 94
208.000000 -144.000000 3.192000 60 86 92
209.000000 -144.000000 3.192000 66 84 93
210.000000 -144.000000 3.192000 61 85 93
211.000000 -144.000000 3.391500 58 86 94
212.000000 -144.000000 3.391500 57 85 94
213.000000 -144.000000 3.391500 61 84 93
214.000000 -144.000000 3.192000 61 85 94
215.000000 -144.000000 3.192000 60 85 94
216.000000 -144.000000 3.192000 60 86 91
217.000000 -144.000000 3.391500 59 85 91
218.000000 -144.000000 3.790500 59 84 91
219.000000 -144.000000 4.389000 60 84 92
