ply
		format ascii 1.0
		element vertex 60525
		property float x
		property float y
		property float z
		property uchar red
		property uchar green
		property uchar blue
		end_header
133.000000 -197.000000 4.588500 119 113 113
134.000000 -197.000000 5.985000 114 108 113
135.000000 -197.000000 6.184500 95 103 111
136.000000 -197.000000 5.985000 81 102 111
137.000000 -197.000000 5.985000 76 102 113
138.000000 -197.000000 3.391500 75 102 113
139.000000 -197.000000 3.192000 73 103 111
140.000000 -197.000000 2.593500 70 103 110
141.000000 -197.000000 2.793000 71 102 111
142.000000 -197.000000 2.992500 74 102 110
143.000000 -197.000000 3.192000 72 103 108
144.000000 -197.000000 2.992500 73 101 109
145.000000 -197.000000 2.394000 76 99 111
146.000000 -197.000000 0.798000 78 101 110
147.000000 -197.000000 0.997500 80 101 112
148.000000 -197.000000 0.997500 77 100 113
149.000000 -197.000000 0.798000 77 102 110
150.000000 -197.000000 0.000000 77 101 109
151.000000 -197.000000 -0.199500 77 103 107
152.000000 -197.000000 -0.199500 76 102 108
153.000000 -197.000000 -0.399000 74 99 110
154.000000 -197.000000 0.000000 77 98 112
155.000000 -197.000000 0.199500 76 96 112
156.000000 -197.000000 0.199500 75 96 112
157.000000 -197.000000 0.199500 76 98 111
158.000000 -197.000000 0.000000 78 98 110
159.000000 -197.000000 -0.199500 73 99 111
160.000000 -197.000000 -0.199500 71 99 112
161.000000 -197.000000 -0.199500 72 97 113
162.000000 -197.000000 -0.199500 76 98 111
163.000000 -197.000000 0.000000 72 101 109
164.000000 -197.000000 0.598500 71 100 111
165.000000 -197.000000 0.997500 72 100 110
166.000000 -197.000000 0.798000 74 101 105
167.000000 -197.000000 1.596000 75 99 107
168.000000 -197.000000 1.596000 76 99 109
169.000000 -197.000000 1.596000 80 98 108
170.000000 -197.000000 0.798000 77 97 109
171.000000 -197.000000 1.197000 74 100 106
172.000000 -197.000000 0.598500 75 98 108
184.000000 -197.000000 42.094498 72 98 106
185.000000 -197.000000 42.293999 70 98 107
186.000000 -197.000000 42.293999 71 97 108
187.000000 -197.000000 42.493500 71 99 107
188.000000 -197.000000 42.094498 71 97 108
189.000000 -197.000000 41.895000 72 98 108
190.000000 -197.000000 41.895000 74 99 106
191.000000 -197.000000 41.895000 75 97 109
192.000000 -197.000000 41.695499 76 97 109
193.000000 -197.000000 41.495998 76 99 105
194.000000 -197.000000 41.495998 74 99 106
195.000000 -197.000000 41.695499 74 98 107
196.000000 -197.000000 41.695499 72 97 108
197.000000 -197.000000 41.695499 72 96 110
198.000000 -197.000000 41.695499 75 96 108
199.000000 -197.000000 42.094498 75 97 110
200.000000 -197.000000 42.293999 72 98 109
201.000000 -197.000000 42.293999 74 97 107
202.000000 -197.000000 42.493500 78 99 108
203.000000 -197.000000 42.493500 110 113 119
204.000000 -197.000000 42.293999 158 139 146
205.000000 -197.000000 41.895000 175 158 172
206.000000 -197.000000 41.495998 125 115 133
207.000000 -197.000000 41.097000 111 97 110
208.000000 -197.000000 40.099499 142 127 144
209.000000 -197.000000 39.101997 157 148 168
210.000000 -197.000000 38.702999 116 121 140
211.000000 -197.000000 38.503498 80 100 111
212.000000 -197.000000 38.503498 74 99 108
213.000000 -197.000000 38.503498 74 99 109
214.000000 -197.000000 38.503498 76 98 109
215.000000 -197.000000 38.304001 79 98 108
220.000000 -197.000000 37.904999 77 100 105
221.000000 -197.000000 38.304001 78 98 107
222.000000 -197.000000 38.503498 77 95 109
223.000000 -197.000000 0.798000 78 96 107
224.000000 -197.000000 0.000000 77 97 108
225.000000 -197.000000 0.000000 74 97 108
226.000000 -197.000000 0.000000 72 97 106
227.000000 -197.000000 0.399000 77 97 106
228.000000 -197.000000 0.000000 78 99 104
229.000000 -197.000000 -0.199500 75 98 105
230.000000 -197.000000 -0.997500 74 97 107
231.000000 -197.000000 -3.192000 74 98 106
232.000000 -197.000000 -1.197000 77 97 106
233.000000 -197.000000 -1.197000 77 96 106
234.000000 -197.000000 -0.399000 74 97 106
235.000000 -197.000000 -0.399000 74 97 105
236.000000 -197.000000 -0.199500 73 96 105
237.000000 -197.000000 -0.199500 71 95 105
238.000000 -197.000000 0.000000 71 97 104
239.000000 -197.000000 -0.199500 72 97 104
240.000000 -197.000000 0.000000 76 95 104
241.000000 -197.000000 0.000000 74 96 103
242.000000 -197.000000 0.000000 74 96 103
243.000000 -197.000000 -0.199500 75 97 102
244.000000 -197.000000 -0.199500 72 95 104
245.000000 -197.000000 0.000000 72 95 105
246.000000 -197.000000 -0.199500 70 95 105
247.000000 -197.000000 -0.199500 73 94 104
248.000000 -197.000000 -0.399000 73 94 103
249.000000 -197.000000 -0.199500 71 94 103
250.000000 -197.000000 0.000000 72 94 103
251.000000 -197.000000 0.399000 71 95 101
252.000000 -197.000000 0.598500 71 95 100
253.000000 -197.000000 0.399000 73 93 100
254.000000 -197.000000 0.399000 73 94 99
255.000000 -197.000000 0.598500 71 94 101
256.000000 -197.000000 0.598500 74 93 103
257.000000 -197.000000 0.798000 77 96 105
258.000000 -197.000000 1.197000 83 101 108
259.000000 -197.000000 1.596000 93 106 111
260.000000 -197.000000 2.593500 96 108 116
261.000000 -197.000000 3.591000 102 109 120
262.000000 -197.000000 3.790500 118 120 130
263.000000 -197.000000 2.194500 137 137 142
264.000000 -197.000000 0.798000 146 145 150
265.000000 -197.000000 0.798000 151 147 154
266.000000 -197.000000 1.197000 152 149 153
267.000000 -197.000000 1.197000 153 149 151
268.000000 -197.000000 0.598500 152 147 154
269.000000 -197.000000 0.000000 150 146 155
270.000000 -197.000000 -0.199500 150 147 151
271.000000 -197.000000 -0.399000 150 147 151
272.000000 -197.000000 -0.399000 151 145 151
273.000000 -197.000000 -0.399000 151 144 151
274.000000 -197.000000 -0.399000 150 142 152
275.000000 -197.000000 -0.199500 149 145 148
276.000000 -197.000000 0.000000 149 144 147
277.000000 -197.000000 0.000000 151 141 147
278.000000 -197.000000 0.000000 147 142 146
279.000000 -197.000000 0.000000 144 141 144
280.000000 -197.000000 -0.399000 146 140 144
281.000000 -197.000000 -0.598500 146 139 144
282.000000 -197.000000 -0.598500 142 138 144
283.000000 -197.000000 -0.598500 141 139 144
284.000000 -197.000000 -0.598500 141 138 144
285.000000 -197.000000 -0.399000 140 138 141
286.000000 -197.000000 -0.798000 140 137 141
287.000000 -197.000000 -0.598500 142 135 143
288.000000 -197.000000 -0.598500 142 135 141
289.000000 -197.000000 -0.199500 140 135 139
290.000000 -197.000000 -0.199500 139 135 138
291.000000 -197.000000 0.000000 139 134 138
292.000000 -197.000000 0.000000 138 132 137
293.000000 -197.000000 0.000000 136 132 136
294.000000 -197.000000 0.000000 134 131 137
295.000000 -197.000000 0.000000 133 129 136
296.000000 -197.000000 0.000000 134 127 134
297.000000 -197.000000 0.000000 136 127 133
298.000000 -197.000000 0.000000 136 128 132
299.000000 -197.000000 0.000000 134 130 131
300.000000 -197.000000 0.199500 134 129 131
301.000000 -197.000000 0.199500 132 127 131
302.000000 -197.000000 0.000000 130 123 129
303.000000 -197.000000 0.000000 126 122 127
304.000000 -197.000000 0.199500 120 118 118
305.000000 -197.000000 0.798000 117 117 115
306.000000 -197.000000 1.396500 117 117 116
307.000000 -197.000000 1.995000 120 117 116
308.000000 -197.000000 1.396500 119 116 117
309.000000 -197.000000 0.000000 116 119 116
310.000000 -197.000000 0.000000 118 118 117
311.000000 -197.000000 0.399000 117 117 113
312.000000 -197.000000 0.399000 116 117 112
313.000000 -197.000000 0.000000 115 115 115
314.000000 -197.000000 0.000000 115 112 116
315.000000 -197.000000 0.000000 116 112 114
316.000000 -197.000000 0.199500 116 112 113
317.000000 -197.000000 0.399000 114 111 113
318.000000 -197.000000 0.399000 114 110 112
319.000000 -197.000000 0.598500 113 111 111
320.000000 -197.000000 0.598500 114 109 114
321.000000 -197.000000 0.598500 114 109 114
322.000000 -197.000000 0.598500 85 84 85
63.000000 -198.000000 0.000000 171 162 167
64.000000 -198.000000 0.598500 169 163 167
65.000000 -198.000000 1.995000 168 162 169
66.000000 -198.000000 2.194500 168 162 172
67.000000 -198.000000 1.995000 169 163 171
68.000000 -198.000000 -0.399000 172 164 172
69.000000 -198.000000 -0.399000 172 164 172
70.000000 -198.000000 -0.598500 170 163 174
71.000000 -198.000000 -0.399000 169 166 173
72.000000 -198.000000 -0.598500 169 166 170
73.000000 -198.000000 -0.199500 169 166 169
74.000000 -198.000000 -0.199500 171 166 169
75.000000 -198.000000 0.000000 170 166 171
76.000000 -198.000000 0.199500 170 165 171
77.000000 -198.000000 0.399000 172 165 171
78.000000 -198.000000 0.798000 172 166 170
79.000000 -198.000000 0.598500 171 166 168
80.000000 -198.000000 -0.399000 172 165 169
81.000000 -198.000000 -0.997500 170 165 168
82.000000 -198.000000 -0.997500 169 164 169
83.000000 -198.000000 -0.399000 170 162 171
84.000000 -198.000000 0.000000 171 163 169
85.000000 -198.000000 0.000000 172 162 168
86.000000 -198.000000 -0.399000 171 163 169
87.000000 -198.000000 -0.798000 169 163 170
88.000000 -198.000000 -0.598500 170 163 170
89.000000 -198.000000 -0.598500 169 162 171
90.000000 -198.000000 -0.598500 169 163 171
91.000000 -198.000000 0.000000 171 163 168
92.000000 -198.000000 0.000000 171 163 167
93.000000 -198.000000 0.000000 172 163 167
94.000000 -198.000000 0.000000 171 164 167
95.000000 -198.000000 -0.798000 168 163 168
96.000000 -198.000000 -1.396500 168 161 169
97.000000 -198.000000 -3.192000 169 163 167
98.000000 -198.000000 -0.997500 167 163 165
99.000000 -198.000000 -0.997500 166 162 165
100.000000 -198.000000 -0.798000 167 161 166
101.000000 -198.000000 -0.798000 165 161 166
102.000000 -198.000000 -0.798000 163 161 167
103.000000 -198.000000 -0.798000 164 159 166
104.000000 -198.000000 -0.598500 165 160 166
105.000000 -198.000000 -0.598500 165 160 163
106.000000 -198.000000 -0.598500 165 161 162
107.000000 -198.000000 -0.399000 168 159 162
108.000000 -198.000000 -0.598500 167 158 160
109.000000 -198.000000 -0.997500 163 158 161
110.000000 -198.000000 -0.997500 163 158 162
111.000000 -198.000000 -0.199500 162 156 162
112.000000 -198.000000 0.598500 161 156 158
113.000000 -198.000000 0.199500 162 155 156
114.000000 -198.000000 0.199500 161 151 158
115.000000 -198.000000 0.000000 159 151 157
116.000000 -198.000000 0.000000 158 151 155
117.000000 -198.000000 0.000000 156 150 155
118.000000 -198.000000 -0.399000 154 150 154
119.000000 -198.000000 -0.399000 154 148 151
120.000000 -198.000000 -0.199500 151 148 150
121.000000 -198.000000 -0.199500 152 146 148
122.000000 -198.000000 0.000000 151 145 145
123.000000 -198.000000 0.000000 146 142 144
124.000000 -198.000000 -0.199500 147 139 143
125.000000 -198.000000 -0.199500 147 135 140
126.000000 -198.000000 0.000000 142 133 137
127.000000 -198.000000 0.598500 138 130 134
128.000000 -198.000000 0.598500 133 129 130
129.000000 -198.000000 0.798000 132 126 126
130.000000 -198.000000 1.396500 129 123 124
131.000000 -198.000000 1.596000 123 120 121
132.000000 -198.000000 3.192000 121 117 117
133.000000 -198.000000 5.187000 120 114 112
134.000000 -198.000000 6.384000 114 109 111
135.000000 -198.000000 6.583500 92 104 111
136.000000 -198.000000 6.384000 77 101 112
137.000000 -198.000000 5.985000 73 101 114
138.000000 -198.000000 3.591000 71 101 115
139.000000 -198.000000 2.593500 72 101 112
140.000000 -198.000000 2.593500 73 101 110
141.000000 -198.000000 2.793000 74 100 110
142.000000 -198.000000 2.992500 78 99 108
143.000000 -198.000000 3.192000 79 99 107
144.000000 -198.000000 2.992500 74 101 107
145.000000 -198.000000 0.997500 72 101 110
146.000000 -198.000000 0.598500 72 102 108
147.000000 -198.000000 0.598500 73 100 109
148.000000 -198.000000 0.598500 74 99 111
149.000000 -198.000000 0.199500 77 100 108
150.000000 -198.000000 -0.199500 76 99 108
151.000000 -198.000000 -0.399000 73 100 107
152.000000 -198.000000 -0.399000 72 101 106
153.000000 -198.000000 -0.399000 71 100 107
154.000000 -198.000000 0.000000 73 99 108
155.000000 -198.000000 0.199500 73 98 108
156.000000 -198.000000 0.199500 73 96 108
157.000000 -198.000000 0.000000 73 96 108
158.000000 -198.000000 0.000000 74 97 108
159.000000 -198.000000 -0.199500 70 98 109
160.000000 -198.000000 -0.199500 71 98 109
161.000000 -198.000000 -0.199500 73 96 110
162.000000 -198.000000 0.000000 74 96 109
163.000000 -198.000000 0.199500 71 99 107
164.000000 -198.000000 0.598500 69 99 108
165.000000 -198.000000 0.598500 67 99 107
166.000000 -198.000000 0.598500 69 99 105
167.000000 -198.000000 0.997500 73 98 105
168.000000 -198.000000 0.997500 74 97 107
169.000000 -198.000000 1.197000 75 98 106
170.000000 -198.000000 0.798000 73 97 106
171.000000 -198.000000 1.197000 70 97 107
172.000000 -198.000000 0.598500 72 95 108
185.000000 -198.000000 42.293999 67 93 107
186.000000 -198.000000 42.293999 69 93 108
187.000000 -198.000000 42.493500 75 95 107
188.000000 -198.000000 42.293999 73 96 105
189.000000 -198.000000 42.094498 69 96 103
190.000000 -198.000000 41.895000 71 95 105
191.000000 -198.000000 41.895000 74 94 105
192.000000 -198.000000 41.695499 73 96 105
193.000000 -198.000000 41.495998 73 96 105
194.000000 -198.000000 41.495998 74 96 104
195.000000 -198.000000 41.495998 72 95 105
196.000000 -198.000000 41.695499 72 94 107
197.000000 -198.000000 41.695499 74 94 107
198.000000 -198.000000 41.895000 75 94 106
199.000000 -198.000000 42.293999 73 95 107
200.000000 -198.000000 42.293999 73 94 107
201.000000 -198.000000 42.493500 77 92 106
202.000000 -198.000000 42.493500 77 95 105
203.000000 -198.000000 42.493500 102 109 115
204.000000 -198.000000 42.094498 152 135 144
205.000000 -198.000000 41.895000 179 156 171
206.000000 -198.000000 41.495998 123 109 131
207.000000 -198.000000 41.495998 69 62 74
208.000000 -198.000000 40.697998 79 72 82
209.000000 -198.000000 39.301498 95 92 108
210.000000 -198.000000 39.101997 86 97 113
211.000000 -198.000000 38.902500 78 97 107
212.000000 -198.000000 38.702999 79 98 105
213.000000 -198.000000 38.702999 80 97 106
214.000000 -198.000000 38.503498 77 97 106
215.000000 -198.000000 38.304001 78 98 105
216.000000 -198.000000 37.506001 79 98 105
218.000000 -198.000000 37.506001 75 94 109
219.000000 -198.000000 37.904999 74 96 109
220.000000 -198.000000 37.904999 74 98 106
221.000000 -198.000000 38.304001 76 96 109
222.000000 -198.000000 38.702999 77 96 109
223.000000 -198.000000 38.702999 80 97 106
224.000000 -198.000000 0.798000 79 96 107
225.000000 -198.000000 0.598500 72 98 105
226.000000 -198.000000 0.598500 70 99 104
227.000000 -198.000000 0.598500 74 98 106
228.000000 -198.000000 0.399000 77 98 104
229.000000 -198.000000 0.000000 77 97 104
230.000000 -198.000000 -0.997500 76 96 106
231.000000 -198.000000 -3.192000 74 97 105
232.000000 -198.000000 -3.192000 78 97 103
233.000000 -198.000000 -1.197000 78 98 101
234.000000 -198.000000 -0.399000 74 99 103
235.000000 -198.000000 -0.199500 76 97 104
236.000000 -198.000000 0.000000 74 95 104
237.000000 -198.000000 0.000000 71 96 104
238.000000 -198.000000 0.000000 71 97 101
239.000000 -198.000000 -0.199500 72 94 104
240.000000 -198.000000 0.000000 74 93 106
241.000000 -198.000000 0.000000 74 95 104
242.000000 -198.000000 0.000000 74 96 102
243.000000 -198.000000 0.000000 75 95 104
244.000000 -198.000000 0.199500 75 94 105
245.000000 -198.000000 0.199500 76 94 103
246.000000 -198.000000 0.000000 75 95 103
247.000000 -198.000000 0.000000 74 95 103
248.000000 -198.000000 -0.399000 71 96 102
249.000000 -198.000000 -0.199500 71 94 103
250.000000 -198.000000 0.000000 74 93 104
251.000000 -198.000000 0.598500 74 95 102
252.000000 -198.000000 0.798000 71 95 102
253.000000 -198.000000 0.997500 71 93 102
254.000000 -198.000000 0.997500 73 93 101
255.000000 -198.000000 0.798000 73 93 103
256.000000 -198.000000 0.798000 75 93 105
257.000000 -198.000000 0.798000 81 97 106
258.000000 -198.000000 1.396500 86 101 108
259.000000 -198.000000 2.593500 92 99 108
260.000000 -198.000000 3.591000 91 94 106
261.000000 -198.000000 4.189500 92 93 107
262.000000 -198.000000 5.386500 96 98 107
263.000000 -198.000000 4.189500 108 110 114
264.000000 -198.000000 1.396500 124 124 129
265.000000 -198.000000 1.197000 137 134 141
266.000000 -198.000000 1.197000 144 144 147
267.000000 -198.000000 1.197000 148 147 150
268.000000 -198.000000 0.598500 150 146 152
269.000000 -198.000000 0.399000 149 146 153
270.000000 -198.000000 0.000000 148 144 151
271.000000 -198.000000 -0.399000 143 140 149
272.000000 -198.000000 -0.399000 141 139 145
273.000000 -198.000000 -0.399000 142 136 143
274.000000 -198.000000 -0.399000 142 132 145
275.000000 -198.000000 -0.199500 140 134 143
276.000000 -198.000000 -0.199500 138 134 139
277.000000 -198.000000 0.000000 137 133 139
278.000000 -198.000000 0.000000 135 132 137
279.000000 -198.000000 -0.199500 133 130 137
280.000000 -198.000000 -0.399000 135 128 135
281.000000 -198.000000 -0.598500 134 127 135
282.000000 -198.000000 -0.798000 130 126 137
283.000000 -198.000000 -0.798000 128 126 136
284.000000 -198.000000 -0.798000 128 127 135
285.000000 -198.000000 -0.598500 131 130 134
286.000000 -198.000000 -0.798000 135 133 137
287.000000 -198.000000 -0.598500 140 134 140
288.000000 -198.000000 -0.598500 142 134 142
289.000000 -198.000000 -0.399000 141 134 141
290.000000 -198.000000 -0.399000 140 132 141
291.000000 -198.000000 -0.399000 140 132 138
292.000000 -198.000000 0.000000 137 133 137
293.000000 -198.000000 0.000000 137 133 136
294.000000 -198.000000 0.000000 137 133 135
295.000000 -198.000000 0.000000 136 130 136
296.000000 -198.000000 0.000000 134 128 135
297.000000 -198.000000 0.000000 134 129 133
298.000000 -198.000000 -0.199500 135 128 133
299.000000 -198.000000 -0.199500 134 129 132
300.000000 -198.000000 0.000000 134 128 131
301.000000 -198.000000 0.199500 132 125 130
302.000000 -198.000000 0.000000 129 125 129
303.000000 -198.000000 0.000000 123 124 125
304.000000 -198.000000 0.199500 120 117 117
305.000000 -198.000000 0.798000 120 115 117
306.000000 -198.000000 1.197000 119 117 116
307.000000 -198.000000 1.995000 121 116 116
308.000000 -198.000000 1.197000 120 114 117
309.000000 -198.000000 0.000000 118 116 116
310.000000 -198.000000 0.000000 119 116 118
311.000000 -198.000000 0.399000 116 115 116
312.000000 -198.000000 0.399000 117 115 115
313.000000 -198.000000 0.000000 117 113 117
314.000000 -198.000000 0.000000 116 112 117
315.000000 -198.000000 0.000000 116 111 116
316.000000 -198.000000 0.000000 115 111 115
317.000000 -198.000000 0.399000 115 109 114
318.000000 -198.000000 0.399000 115 108 114
319.000000 -198.000000 0.399000 116 108 113
320.000000 -198.000000 0.598500 115 110 113
321.000000 -198.000000 0.598500 114 110 112
322.000000 -198.000000 0.399000 85 84 84
63.000000 -199.000000 0.399000 171 163 168
64.000000 -199.000000 2.194500 169 163 167
65.000000 -199.000000 2.394000 168 164 167
66.000000 -199.000000 2.793000 168 163 170
67.000000 -199.000000 2.793000 170 164 171
68.000000 -199.000000 0.598500 171 163 171
69.000000 -199.000000 -0.199500 173 164 172
70.000000 -199.000000 -0.199500 170 164 172
71.000000 -199.000000 -0.199500 169 165 172
72.000000 -199.000000 -0.199500 169 165 170
73.000000 -199.000000 0.000000 169 167 170
74.000000 -199.000000 0.199500 169 166 170
75.000000 -199.000000 0.598500 168 165 171
76.000000 -199.000000 0.997500 170 164 171
77.000000 -199.000000 0.997500 173 164 170
78.000000 -199.000000 1.197000 174 166 168
79.000000 -199.000000 0.798000 171 166 167
80.000000 -199.000000 -0.399000 170 165 170
81.000000 -199.000000 -0.798000 170 164 171
82.000000 -199.000000 -0.798000 168 164 170
83.000000 -199.000000 -0.399000 168 163 171
84.000000 -199.000000 0.000000 169 163 170
85.000000 -199.000000 0.199500 169 163 170
86.000000 -199.000000 0.000000 169 163 169
87.000000 -199.000000 -0.598500 169 162 170
88.000000 -199.000000 -0.598500 169 162 171
89.000000 -199.000000 -0.598500 168 163 170
90.000000 -199.000000 -0.598500 170 162 170
91.000000 -199.000000 -0.199500 170 164 168
92.000000 -199.000000 0.000000 171 164 166
93.000000 -199.000000 0.000000 172 163 167
94.000000 -199.000000 0.000000 170 163 169
95.000000 -199.000000 -0.399000 168 163 169
96.000000 -199.000000 -0.598500 169 163 169
97.000000 -199.000000 -0.199500 171 163 166
98.000000 -199.000000 0.000000 170 162 165
99.000000 -199.000000 -0.199500 169 161 166
100.000000 -199.000000 -0.598500 169 160 167
101.000000 -199.000000 -0.598500 167 162 165
102.000000 -199.000000 -0.598500 165 161 166
103.000000 -199.000000 -0.399000 164 159 166
104.000000 -199.000000 -0.399000 163 162 164
105.000000 -199.000000 -0.199500 163 160 163
106.000000 -199.000000 -0.199500 165 160 162
107.000000 -199.000000 0.000000 170 158 161
108.000000 -199.000000 -0.598500 169 158 161
109.000000 -199.000000 0.000000 162 158 161
110.000000 -199.000000 0.000000 163 159 160
111.000000 -199.000000 1.396500 163 154 162
112.000000 -199.000000 2.194500 163 154 161
113.000000 -199.000000 2.194500 162 153 160
114.000000 -199.000000 0.199500 158 153 159
115.000000 -199.000000 0.000000 156 152 158
116.000000 -199.000000 0.000000 157 151 155
117.000000 -199.000000 0.000000 155 150 154
118.000000 -199.000000 0.000000 154 149 153
119.000000 -199.000000 0.000000 154 147 152
120.000000 -199.000000 0.000000 151 146 150
121.000000 -199.000000 0.199500 152 145 148
122.000000 -199.000000 0.199500 150 144 146
123.000000 -199.000000 0.199500 147 141 143
124.000000 -199.000000 0.199500 145 137 143
125.000000 -199.000000 0.399000 144 136 140
126.000000 -199.000000 0.997500 140 135 137
127.000000 -199.000000 1.197000 138 132 133
128.000000 -199.000000 1.396500 135 128 129
129.000000 -199.000000 1.396500 132 124 129
130.000000 -199.000000 1.596000 129 120 126
131.000000 -199.000000 3.192000 124 118 123
132.000000 -199.000000 4.389000 121 115 119
133.000000 -199.000000 6.384000 118 113 114
134.000000 -199.000000 6.783000 112 111 109
135.000000 -199.000000 7.381500 92 104 107
136.000000 -199.000000 7.182000 80 100 110
137.000000 -199.000000 6.384000 75 99 112
138.000000 -199.000000 3.591000 72 100 112
139.000000 -199.000000 3.391500 69 100 111
140.000000 -199.000000 2.992500 73 100 108
141.000000 -199.000000 2.992500 76 98 109
142.000000 -199.000000 3.192000 77 98 108
143.000000 -199.000000 3.990000 78 99 106
144.000000 -199.000000 3.192000 76 99 105
145.000000 -199.000000 0.997500 75 99 107
146.000000 -199.000000 0.598500 71 99 108
147.000000 -199.000000 0.997500 71 98 108
148.000000 -199.000000 0.598500 71 98 109
149.000000 -199.000000 0.199500 71 99 108
150.000000 -199.000000 0.000000 72 98 108
151.000000 -199.000000 -0.199500 74 96 107
152.000000 -199.000000 0.000000 75 96 107
153.000000 -199.000000 0.000000 73 98 105
154.000000 -199.000000 0.199500 72 98 105
155.000000 -199.000000 0.199500 73 96 105
156.000000 -199.000000 0.399000 73 94 108
157.000000 -199.000000 0.199500 72 93 108
158.000000 -199.000000 0.000000 70 94 107
159.000000 -199.000000 -0.199500 71 96 106
160.000000 -199.000000 0.000000 72 95 107
161.000000 -199.000000 0.199500 72 94 108
162.000000 -199.000000 0.199500 70 95 106
163.000000 -199.000000 0.598500 69 97 104
164.000000 -199.000000 0.598500 68 97 104
165.000000 -199.000000 1.197000 68 97 105
166.000000 -199.000000 0.997500 70 96 104
167.000000 -199.000000 1.396500 70 96 103
168.000000 -199.000000 1.396500 70 95 104
169.000000 -199.000000 1.596000 70 97 102
170.000000 -199.000000 1.197000 70 98 101
171.000000 -199.000000 1.396500 69 96 105
172.000000 -199.000000 0.598500 69 95 106
185.000000 -199.000000 42.293999 68 91 103
186.000000 -199.000000 42.493500 68 93 103
187.000000 -199.000000 42.493500 77 91 102
188.000000 -199.000000 42.493500 74 92 100
189.000000 -199.000000 42.094498 70 93 101
190.000000 -199.000000 41.895000 68 92 104
191.000000 -199.000000 41.895000 70 93 102
192.000000 -199.000000 41.695499 71 92 101
193.000000 -199.000000 41.495998 71 92 102
194.000000 -199.000000 41.495998 72 93 101
195.000000 -199.000000 41.495998 73 91 102
196.000000 -199.000000 41.695499 74 90 106
197.000000 -199.000000 41.895000 73 89 105
198.000000 -199.000000 42.094498 72 91 105
199.000000 -199.000000 42.293999 76 93 103
200.000000 -199.000000 42.493500 74 92 102
201.000000 -199.000000 42.493500 74 91 101
202.000000 -199.000000 42.493500 76 92 102
203.000000 -199.000000 42.493500 98 107 116
204.000000 -199.000000 42.293999 149 138 148
205.000000 -199.000000 42.094498 182 158 172
206.000000 -199.000000 41.695499 140 129 145
207.000000 -199.000000 41.495998 67 71 77
208.000000 -199.000000 41.097000 61 69 70
209.000000 -199.000000 39.700500 69 85 93
210.000000 -199.000000 39.301498 73 94 105
211.000000 -199.000000 39.101997 76 96 104
212.000000 -199.000000 38.902500 75 97 103
213.000000 -199.000000 38.702999 77 96 106
214.000000 -199.000000 38.702999 76 96 106
215.000000 -199.000000 38.304001 77 98 106
216.000000 -199.000000 37.506001 79 97 105
218.000000 -199.000000 37.506001 78 95 106
219.000000 -199.000000 37.904999 77 98 105
220.000000 -199.000000 37.904999 76 100 105
221.000000 -199.000000 38.304001 77 97 106
222.000000 -199.000000 38.702999 78 96 107
223.000000 -199.000000 38.702999 77 96 106
224.000000 -199.000000 3.192000 78 95 106
225.000000 -199.000000 2.394000 74 98 105
226.000000 -199.000000 2.394000 70 99 106
227.000000 -199.000000 2.394000 71 99 106
228.000000 -199.000000 0.598500 74 98 103
229.000000 -199.000000 0.199500 75 97 103
230.000000 -199.000000 0.000000 77 95 105
231.000000 -199.000000 -0.997500 74 96 105
232.000000 -199.000000 -0.997500 76 95 104
233.000000 -199.000000 -1.197000 75 96 102
234.000000 -199.000000 -0.399000 74 98 103
235.000000 -199.000000 -0.199500 78 96 105
236.000000 -199.000000 0.000000 78 95 105
237.000000 -199.000000 0.000000 76 95 106
238.000000 -199.000000 0.000000 75 96 104
239.000000 -199.000000 0.000000 72 95 106
240.000000 -199.000000 0.000000 72 94 107
241.000000 -199.000000 0.000000 72 95 106
242.000000 -199.000000 0.199500 70 96 105
243.000000 -199.000000 0.399000 74 95 106
244.000000 -199.000000 0.399000 78 96 105
245.000000 -199.000000 0.399000 80 95 103
246.000000 -199.000000 0.199500 78 95 103
247.000000 -199.000000 0.199500 75 97 103
248.000000 -199.000000 0.000000 74 97 102
249.000000 -199.000000 0.000000 72 96 104
250.000000 -199.000000 0.199500 73 96 103
251.000000 -199.000000 1.197000 74 96 104
252.000000 -199.000000 1.396500 75 93 105
253.000000 -199.000000 1.396500 73 95 104
254.000000 -199.000000 0.997500 72 95 103
255.000000 -199.000000 0.997500 72 95 105
256.000000 -199.000000 0.997500 77 96 107
257.000000 -199.000000 1.396500 83 100 107
258.000000 -199.000000 1.596000 88 100 108
259.000000 -199.000000 3.192000 85 88 99
260.000000 -199.000000 3.990000 83 82 90
261.000000 -199.000000 4.788000 89 89 93
262.000000 -199.000000 5.785500 96 99 100
263.000000 -199.000000 6.184500 98 105 105
264.000000 -199.000000 6.184500 107 111 112
265.000000 -199.000000 2.394000 121 122 127
266.000000 -199.000000 1.596000 127 129 134
267.000000 -199.000000 1.596000 132 133 138
268.000000 -199.000000 1.197000 137 136 141
269.000000 -199.000000 0.598500 138 137 142
270.000000 -199.000000 0.399000 135 130 140
271.000000 -199.000000 0.000000 123 121 132
272.000000 -199.000000 -0.399000 115 116 125
273.000000 -199.000000 -0.399000 114 109 118
274.000000 -199.000000 -0.199500 108 106 116
275.000000 -199.000000 -0.199500 103 103 115
276.000000 -199.000000 -0.199500 101 101 109
277.000000 -199.000000 0.000000 98 99 108
278.000000 -199.000000 0.000000 97 97 108
279.000000 -199.000000 -0.199500 96 95 107
280.000000 -199.000000 -0.598500 96 95 103
281.000000 -199.000000 -1.197000 94 96 103
282.000000 -199.000000 -3.192000 94 94 106
283.000000 -199.000000 -1.197000 96 96 106
284.000000 -199.000000 -3.192000 100 102 112
285.000000 -199.000000 -3.192000 108 111 117
286.000000 -199.000000 -3.192000 117 117 122
287.000000 -199.000000 -3.192000 126 123 129
288.000000 -199.000000 -3.192000 132 129 135
289.000000 -199.000000 -3.192000 137 133 138
290.000000 -199.000000 -3.192000 139 132 140
291.000000 -199.000000 -3.192000 140 132 139
292.000000 -199.000000 -3.192000 138 134 138
293.000000 -199.000000 -1.197000 136 133 137
294.000000 -199.000000 -0.798000 137 132 135
295.000000 -199.000000 -0.598500 137 131 136
296.000000 -199.000000 -0.598500 135 129 136
297.000000 -199.000000 -0.798000 134 130 133
298.000000 -199.000000 -0.798000 133 131 131
299.000000 -199.000000 -0.199500 132 130 130
300.000000 -199.000000 -0.199500 134 125 133
301.000000 -199.000000 0.000000 133 124 132
302.000000 -199.000000 -0.199500 129 125 130
303.000000 -199.000000 0.000000 123 123 126
304.000000 -199.000000 0.000000 117 116 119
305.000000 -199.000000 0.199500 119 114 118
306.000000 -199.000000 0.798000 119 116 117
307.000000 -199.000000 1.197000 119 116 116
308.000000 -199.000000 0.798000 119 115 117
309.000000 -199.000000 0.399000 117 115 116
310.000000 -199.000000 0.000000 118 115 117
311.000000 -199.000000 0.000000 114 114 116
312.000000 -199.000000 0.000000 119 110 116
313.000000 -199.000000 0.000000 120 111 116
314.000000 -199.000000 -0.798000 117 110 116
315.000000 -199.000000 -0.199500 116 109 117
316.000000 -199.000000 -0.199500 113 110 114
317.000000 -199.000000 0.000000 112 109 114
318.000000 -199.000000 0.199500 111 108 113
319.000000 -199.000000 0.199500 112 109 112
320.000000 -199.000000 0.199500 112 110 113
321.000000 -199.000000 0.199500 112 109 112
322.000000 -199.000000 0.199500 87 82 85
63.000000 -200.000000 1.197000 167 165 167
64.000000 -200.000000 2.194500 168 164 167
65.000000 -200.000000 2.793000 169 163 167
66.000000 -200.000000 3.790500 169 162 169
67.000000 -200.000000 4.987500 169 163 170
68.000000 -200.000000 5.386500 169 163 171
69.000000 -200.000000 0.000000 170 164 171
70.000000 -200.000000 0.000000 170 164 170
71.000000 -200.000000 0.000000 172 163 171
72.000000 -200.000000 0.399000 171 164 170
73.000000 -200.000000 0.598500 170 164 169
74.000000 -200.000000 1.396500 169 165 169
75.000000 -200.000000 1.795500 168 165 169
76.000000 -200.000000 1.197000 170 163 172
77.000000 -200.000000 0.997500 172 162 172
78.000000 -200.000000 1.197000 171 164 169
79.000000 -200.000000 0.798000 168 165 168
80.000000 -200.000000 0.000000 170 165 169
81.000000 -200.000000 -0.798000 169 164 171
82.000000 -200.000000 -0.798000 169 163 170
83.000000 -200.000000 -0.199500 169 163 169
84.000000 -200.000000 0.399000 169 165 168
85.000000 -200.000000 0.598500 168 164 169
86.000000 -200.000000 0.399000 169 163 169
87.000000 -200.000000 -0.399000 171 162 168
88.000000 -200.000000 -0.598500 170 162 170
89.000000 -200.000000 -0.997500 169 162 171
90.000000 -200.000000 -0.997500 168 162 171
91.000000 -200.000000 -0.199500 169 164 169
92.000000 -200.000000 0.000000 170 165 168
93.000000 -200.000000 0.199500 169 164 169
94.000000 -200.000000 0.000000 168 164 169
95.000000 -200.000000 -0.199500 167 164 169
96.000000 -200.000000 -0.199500 169 163 167
97.000000 -200.000000 0.000000 171 164 165
98.000000 -200.000000 1.795500 169 164 165
99.000000 -200.000000 2.793000 169 163 165
100.000000 -200.000000 -0.199500 169 162 165
101.000000 -200.000000 -0.199500 167 162 165
102.000000 -200.000000 -0.199500 166 161 164
103.000000 -200.000000 0.000000 164 160 163
104.000000 -200.000000 0.000000 163 161 163
105.000000 -200.000000 0.000000 162 160 166
106.000000 -200.000000 0.000000 165 159 164
107.000000 -200.000000 0.000000 169 159 161
108.000000 -200.000000 0.000000 167 159 160
109.000000 -200.000000 1.596000 162 160 159
110.000000 -200.000000 2.194500 163 158 158
111.000000 -200.000000 2.593500 162 155 161
112.000000 -200.000000 2.992500 164 153 161
113.000000 -200.000000 2.394000 165 153 159
114.000000 -200.000000 0.997500 160 154 158
115.000000 -200.000000 0.000000 156 152 157
116.000000 -200.000000 0.000000 156 152 154
117.000000 -200.000000 0.000000 155 151 154
118.000000 -200.000000 0.000000 154 151 153
119.000000 -200.000000 0.199500 153 150 150
120.000000 -200.000000 0.798000 152 148 149
121.000000 -200.000000 0.598500 154 145 149
122.000000 -200.000000 0.399000 152 142 148
123.000000 -200.000000 0.399000 150 139 145
124.000000 -200.000000 0.598500 145 138 144
125.000000 -200.000000 0.997500 142 137 139
126.000000 -200.000000 2.194500 137 136 136
127.000000 -200.000000 2.793000 135 134 131
128.000000 -200.000000 3.391500 133 129 128
129.000000 -200.000000 3.790500 131 125 128
130.000000 -200.000000 4.389000 128 122 124
131.000000 -200.000000 4.389000 126 119 121
132.000000 -200.000000 6.384000 123 115 119
133.000000 -200.000000 7.182000 118 113 115
134.000000 -200.000000 7.780500 110 112 108
135.000000 -200.000000 7.780500 93 104 105
136.000000 -200.000000 7.780500 81 99 107
137.000000 -200.000000 7.182000 78 98 108
138.000000 -200.000000 3.990000 78 101 107
139.000000 -200.000000 3.591000 72 100 108
140.000000 -200.000000 3.391500 70 99 107
141.000000 -200.000000 3.790500 74 98 107
142.000000 -200.000000 3.990000 74 98 106
143.000000 -200.000000 5.785500 75 99 105
144.000000 -200.000000 3.990000 76 98 104
145.000000 -200.000000 0.997500 76 96 104
146.000000 -200.000000 0.399000 74 96 105
147.000000 -200.000000 0.598500 73 96 104
148.000000 -200.000000 0.399000 71 95 107
149.000000 -200.000000 -0.199500 67 97 106
150.000000 -200.000000 -0.199500 65 96 106
151.000000 -200.000000 -0.199500 69 94 107
152.000000 -200.000000 0.000000 71 93 107
153.000000 -200.000000 0.000000 70 94 105
154.000000 -200.000000 0.399000 69 95 103
155.000000 -200.000000 0.399000 73 95 102
156.000000 -200.000000 0.399000 75 94 104
157.000000 -200.000000 0.199500 73 93 105
158.000000 -200.000000 0.199500 71 93 104
159.000000 -200.000000 0.000000 74 93 104
160.000000 -200.000000 0.000000 73 92 105
161.000000 -200.000000 0.199500 72 93 105
162.000000 -200.000000 0.399000 71 93 103
163.000000 -200.000000 0.798000 68 94 102
164.000000 -200.000000 0.997500 70 93 103
165.000000 -200.000000 1.197000 70 92 105
166.000000 -200.000000 1.197000 71 92 104
167.000000 -200.000000 1.396500 72 93 101
168.000000 -200.000000 1.396500 69 93 100
169.000000 -200.000000 2.194500 71 93 101
170.000000 -200.000000 1.197000 70 95 100
171.000000 -200.000000 1.197000 71 93 103
182.000000 -200.000000 41.296497 64 91 101
183.000000 -200.000000 41.695499 65 90 103
184.000000 -200.000000 42.293999 71 88 103
185.000000 -200.000000 42.692997 70 90 100
186.000000 -200.000000 42.892498 64 92 100
187.000000 -200.000000 43.291500 67 90 100
188.000000 -200.000000 42.493500 69 90 99
189.000000 -200.000000 42.293999 70 90 101
190.000000 -200.000000 42.094498 69 90 101
191.000000 -200.000000 42.094498 65 92 99
192.000000 -200.000000 41.695499 65 89 101
193.000000 -200.000000 41.695499 64 90 102
194.000000 -200.000000 41.495998 64 91 102
195.000000 -200.000000 41.695499 65 91 102
196.000000 -200.000000 41.895000 68 91 102
197.000000 -200.000000 42.293999 70 90 102
198.000000 -200.000000 42.493500 69 90 102
199.000000 -200.000000 42.692997 72 92 101
200.000000 -200.000000 42.692997 73 93 101
201.000000 -200.000000 42.692997 71 92 98
202.000000 -200.000000 42.692997 74 94 99
203.000000 -200.000000 42.692997 95 110 113
204.000000 -200.000000 42.692997 145 140 146
205.000000 -200.000000 42.293999 172 149 165
206.000000 -200.000000 42.094498 153 145 161
207.000000 -200.000000 41.495998 91 104 111
208.000000 -200.000000 41.296497 67 93 95
209.000000 -200.000000 40.099499 62 94 104
210.000000 -200.000000 39.700500 67 95 106
211.000000 -200.000000 39.700500 72 97 103
212.000000 -200.000000 39.301498 74 96 104
213.000000 -200.000000 39.101997 74 95 105
214.000000 -200.000000 38.702999 74 96 106
215.000000 -200.000000 38.304001 75 98 106
216.000000 -200.000000 38.104500 77 96 105
217.000000 -200.000000 37.506001 78 94 106
218.000000 -200.000000 37.904999 76 96 108
219.000000 -200.000000 37.904999 79 97 107
220.000000 -200.000000 38.304001 78 97 107
221.000000 -200.000000 38.304001 79 97 106
222.000000 -200.000000 38.702999 79 95 107
223.000000 -200.000000 38.702999 74 95 108
224.000000 -200.000000 3.192000 76 96 107
225.000000 -200.000000 2.394000 76 98 107
226.000000 -200.000000 1.596000 73 99 107
227.000000 -200.000000 1.596000 73 99 107
228.000000 -200.000000 0.798000 74 99 104
229.000000 -200.000000 0.399000 76 97 106
230.000000 -200.000000 0.000000 77 96 108
231.000000 -200.000000 -0.798000 76 98 107
232.000000 -200.000000 -0.598500 76 98 105
233.000000 -200.000000 -3.192000 74 98 104
236.000000 -200.000000 0.399000 79 96 105
237.000000 -200.000000 0.199500 75 97 107
238.000000 -200.000000 0.000000 75 99 106
239.000000 -200.000000 0.000000 75 98 107
240.000000 -200.000000 0.000000 74 98 108
241.000000 -200.000000 0.000000 73 99 107
242.000000 -200.000000 0.199500 70 99 107
243.000000 -200.000000 0.399000 74 98 107
244.000000 -200.000000 0.598500 78 99 105
245.000000 -200.000000 0.598500 78 99 106
246.000000 -200.000000 0.598500 77 98 107
247.000000 -200.000000 0.199500 77 98 106
248.000000 -200.000000 0.000000 81 97 105
249.000000 -200.000000 0.000000 79 98 104
250.000000 -200.000000 0.598500 75 99 106
251.000000 -200.000000 1.596000 79 96 107
252.000000 -200.000000 2.194500 77 96 107
253.000000 -200.000000 2.194500 74 97 107
254.000000 -200.000000 0.997500 72 97 106
255.000000 -200.000000 0.798000 72 98 108
256.000000 -200.000000 0.798000 80 99 108
257.000000 -200.000000 1.396500 88 101 109
258.000000 -200.000000 1.995000 94 103 113
259.000000 -200.000000 2.992500 95 103 112
260.000000 -200.000000 3.591000 101 106 106
261.000000 -200.000000 4.189500 105 109 110
262.000000 -200.000000 5.386500 108 113 117
263.000000 -200.000000 5.586000 109 117 120
264.000000 -200.000000 4.588500 115 122 123
265.000000 -200.000000 4.189500 122 126 130
266.000000 -200.000000 3.391500 121 125 134
267.000000 -200.000000 2.793000 120 126 134
268.000000 -200.000000 2.793000 124 127 133
269.000000 -200.000000 2.593500 125 127 133
270.000000 -200.000000 2.394000 123 124 132
271.000000 -200.000000 0.798000 118 120 128
272.000000 -200.000000 0.199500 114 118 123
273.000000 -200.000000 0.199500 109 113 118
274.000000 -200.000000 0.000000 101 106 111
275.000000 -200.000000 -0.199500 93 98 106
276.000000 -200.000000 -0.399000 85 91 97
277.000000 -200.000000 -0.199500 77 83 91
278.000000 -200.000000 -0.199500 74 77 85
279.000000 -200.000000 -0.399000 70 72 81
280.000000 -200.000000 -1.197000 66 73 77
281.000000 -200.000000 -3.192000 64 72 75
282.000000 -200.000000 -3.192000 65 69 81
283.000000 -200.000000 -3.192000 66 72 80
284.000000 -200.000000 -3.192000 73 79 86
285.000000 -200.000000 -3.192000 83 89 97
289.000000 -200.000000 -3.192000 122 122 125
290.000000 -200.000000 -3.192000 134 131 134
291.000000 -200.000000 -3.192000 141 132 139
292.000000 -200.000000 -3.192000 138 134 138
293.000000 -200.000000 -3.192000 135 133 137
294.000000 -200.000000 -3.192000 137 132 137
295.000000 -200.000000 -0.997500 136 132 136
296.000000 -200.000000 -0.798000 133 131 136
297.000000 -200.000000 -0.798000 132 130 134
298.000000 -200.000000 -0.798000 131 130 131
299.000000 -200.000000 -0.798000 130 128 130
300.000000 -200.000000 -0.199500 133 124 132
301.000000 -200.000000 -0.199500 132 124 131
302.000000 -200.000000 -0.399000 130 126 129
303.000000 -200.000000 -0.399000 125 123 125
304.000000 -200.000000 0.000000 118 118 119
305.000000 -200.000000 0.199500 117 117 117
306.000000 -200.000000 0.798000 118 116 118
307.000000 -200.000000 0.798000 118 116 118
308.000000 -200.000000 0.598500 118 115 117
309.000000 -200.000000 0.399000 116 115 117
310.000000 -200.000000 0.000000 117 115 116
311.000000 -200.000000 0.000000 115 112 116
312.000000 -200.000000 0.000000 120 110 117
313.000000 -200.000000 -1.197000 118 110 116
314.000000 -200.000000 -1.197000 114 110 116
315.000000 -200.000000 -0.798000 117 111 114
316.000000 -200.000000 -0.399000 116 110 113
317.000000 -200.000000 -0.199500 111 109 114
318.000000 -200.000000 -0.199500 111 109 114
319.000000 -200.000000 0.000000 112 110 113
320.000000 -200.000000 0.199500 113 110 113
321.000000 -200.000000 0.199500 112 108 113
322.000000 -200.000000 0.199500 86 81 85
63.000000 -201.000000 2.194500 165 164 168
64.000000 -201.000000 2.394000 170 163 167
65.000000 -201.000000 3.192000 170 164 167
66.000000 -201.000000 4.987500 168 163 169
67.000000 -201.000000 6.184500 168 163 169
68.000000 -201.000000 6.184500 169 162 169
69.000000 -201.000000 5.785500 169 164 170
70.000000 -201.000000 0.598500 170 164 171
71.000000 -201.000000 0.399000 172 163 170
72.000000 -201.000000 0.798000 172 163 170
73.000000 -201.000000 1.795500 169 163 170
74.000000 -201.000000 2.593500 168 166 168
75.000000 -201.000000 2.394000 169 165 169
76.000000 -201.000000 1.995000 171 163 172
77.000000 -201.000000 0.997500 170 163 171
78.000000 -201.000000 0.997500 169 164 169
79.000000 -201.000000 0.598500 169 165 168
80.000000 -201.000000 0.000000 170 165 168
81.000000 -201.000000 -0.997500 168 163 171
82.000000 -201.000000 -0.997500 167 163 172
83.000000 -201.000000 -0.199500 168 164 170
84.000000 -201.000000 0.598500 168 166 167
85.000000 -201.000000 0.798000 169 165 167
86.000000 -201.000000 0.798000 171 163 168
87.000000 -201.000000 -0.598500 170 163 167
88.000000 -201.000000 -3.192000 169 163 169
89.000000 -201.000000 -3.192000 170 163 169
90.000000 -201.000000 -3.192000 167 163 169
91.000000 -201.000000 -3.192000 168 165 168
92.000000 -201.000000 -0.199500 170 164 168
93.000000 -201.000000 0.598500 168 162 171
94.000000 -201.000000 0.598500 169 163 170
95.000000 -201.000000 0.000000 168 163 169
96.000000 -201.000000 -0.199500 169 164 166
97.000000 -201.000000 0.000000 169 164 164
98.000000 -201.000000 6.384000 168 164 164
99.000000 -201.000000 8.379000 168 163 165
100.000000 -201.000000 6.384000 167 162 164
101.000000 -201.000000 0.000000 164 161 166
102.000000 -201.000000 0.000000 166 160 164
103.000000 -201.000000 0.000000 165 161 163
104.000000 -201.000000 0.000000 166 161 164
105.000000 -201.000000 0.199500 166 159 166
106.000000 -201.000000 0.199500 167 158 165
107.000000 -201.000000 1.396500 165 158 164
108.000000 -201.000000 1.596000 162 160 160
109.000000 -201.000000 2.593500 160 160 159
110.000000 -201.000000 2.593500 162 157 160
111.000000 -201.000000 2.992500 163 156 160
112.000000 -201.000000 2.992500 165 155 159
113.000000 -201.000000 2.992500 163 154 157
114.000000 -201.000000 1.396500 161 154 157
115.000000 -201.000000 0.199500 160 153 155
116.000000 -201.000000 0.000000 157 153 152
117.000000 -201.000000 0.000000 155 151 155
118.000000 -201.000000 0.399000 152 150 153
119.000000 -201.000000 1.197000 153 150 148
120.000000 -201.000000 1.197000 153 150 147
121.000000 -201.000000 0.997500 152 147 147
122.000000 -201.000000 0.598500 149 142 148
123.000000 -201.000000 0.598500 147 140 145
124.000000 -201.000000 0.798000 144 140 143
125.000000 -201.000000 2.194500 142 138 138
126.000000 -201.000000 2.793000 138 135 135
127.000000 -201.000000 3.391500 136 133 132
128.000000 -201.000000 4.588500 134 129 128
129.000000 -201.000000 5.586000 131 125 126
130.000000 -201.000000 6.384000 129 123 122
131.000000 -201.000000 8.179500 126 121 118
132.000000 -201.000000 8.778000 122 117 115
133.000000 -201.000000 9.376500 120 115 113
134.000000 -201.000000 9.576000 109 112 108
135.000000 -201.000000 9.576000 88 100 106
136.000000 -201.000000 8.379000 75 98 105
137.000000 -201.000000 6.982500 76 99 105
138.000000 -201.000000 3.990000 79 100 104
139.000000 -201.000000 3.790500 75 97 106
140.000000 -201.000000 3.790500 70 96 108
141.000000 -201.000000 4.189500 72 96 105
142.000000 -201.000000 5.386500 74 95 105
143.000000 -201.000000 6.384000 74 96 104
144.000000 -201.000000 6.384000 73 97 103
147.000000 -201.000000 0.399000 68 95 104
148.000000 -201.000000 0.199500 69 93 104
149.000000 -201.000000 -1.197000 65 94 101
150.000000 -201.000000 -0.199500 64 94 103
151.000000 -201.000000 -0.199500 67 93 104
152.000000 -201.000000 0.199500 69 91 105
153.000000 -201.000000 0.199500 68 93 103
154.000000 -201.000000 0.399000 70 94 101
155.000000 -201.000000 0.399000 73 93 102
156.000000 -201.000000 0.598500 74 93 103
157.000000 -201.000000 0.199500 72 92 103
158.000000 -201.000000 0.199500 69 94 100
159.000000 -201.000000 0.000000 68 93 100
160.000000 -201.000000 0.199500 68 93 101
161.000000 -201.000000 0.000000 71 94 100
162.000000 -201.000000 0.399000 73 92 100
163.000000 -201.000000 0.598500 70 92 99
164.000000 -201.000000 0.598500 68 92 99
165.000000 -201.000000 1.197000 65 91 102
166.000000 -201.000000 1.197000 67 92 102
167.000000 -201.000000 1.995000 69 92 100
168.000000 -201.000000 2.593500 68 92 101
169.000000 -201.000000 2.593500 69 91 101
175.000000 -201.000000 41.695499 67 92 100
176.000000 -201.000000 42.094498 66 91 99
177.000000 -201.000000 42.094498 67 91 99
182.000000 -201.000000 41.495998 63 92 98
183.000000 -201.000000 42.293999 64 90 99
184.000000 -201.000000 42.493500 68 89 99
185.000000 -201.000000 42.892498 68 90 98
186.000000 -201.000000 42.892498 66 90 99
187.000000 -201.000000 43.291500 64 91 99
188.000000 -201.000000 42.892498 66 92 99
189.000000 -201.000000 42.293999 69 91 100
190.000000 -201.000000 42.293999 68 92 98
191.000000 -201.000000 42.293999 64 93 97
192.000000 -201.000000 42.293999 65 91 101
193.000000 -201.000000 41.895000 65 92 102
194.000000 -201.000000 41.695499 69 92 101
195.000000 -201.000000 41.895000 69 93 99
196.000000 -201.000000 42.094498 68 93 99
197.000000 -201.000000 42.493500 69 90 100
198.000000 -201.000000 42.493500 69 89 102
199.000000 -201.000000 42.692997 66 92 103
200.000000 -201.000000 42.692997 68 94 103
201.000000 -201.000000 42.892498 68 95 100
202.000000 -201.000000 42.892498 73 96 101
203.000000 -201.000000 43.091999 95 106 110
204.000000 -201.000000 43.091999 109 101 116
205.000000 -201.000000 43.091999 104 91 110
206.000000 -201.000000 42.493500 107 101 119
207.000000 -201.000000 41.895000 91 100 112
208.000000 -201.000000 41.495998 72 97 104
209.000000 -201.000000 40.498497 67 96 105
210.000000 -201.000000 39.899998 68 96 105
211.000000 -201.000000 39.700500 72 97 104
212.000000 -201.000000 39.700500 76 96 105
213.000000 -201.000000 39.700500 76 97 105
214.000000 -201.000000 39.301498 75 99 104
215.000000 -201.000000 38.702999 77 100 106
216.000000 -201.000000 38.304001 76 99 107
217.000000 -201.000000 38.104500 76 100 109
218.000000 -201.000000 38.104500 81 99 111
219.000000 -201.000000 38.304001 86 99 110
220.000000 -201.000000 38.304001 86 100 111
221.000000 -201.000000 38.702999 87 102 110
222.000000 -201.000000 38.702999 88 102 111
223.000000 -201.000000 38.702999 86 103 113
224.000000 -201.000000 2.394000 88 103 112
225.000000 -201.000000 0.199500 87 103 110
226.000000 -201.000000 0.798000 80 102 108
227.000000 -201.000000 1.197000 76 100 108
228.000000 -201.000000 0.798000 77 101 107
229.000000 -201.000000 0.399000 78 99 108
230.000000 -201.000000 0.000000 76 98 110
231.000000 -201.000000 -0.798000 74 98 111
232.000000 -201.000000 -0.399000 73 99 109
233.000000 -201.000000 -0.399000 74 101 108
236.000000 -201.000000 0.199500 75 100 107
237.000000 -201.000000 0.199500 73 101 107
238.000000 -201.000000 0.199500 75 102 105
239.000000 -201.000000 0.000000 76 99 108
240.000000 -201.000000 0.000000 73 100 109
