ply
		format ascii 1.0
		element vertex 60371
		property float x
		property float y
		property float z
		property uchar red
		property uchar green
		property uchar blue
		end_header
165.000000 -193.000000 3.990000 79 105 113
166.000000 -193.000000 4.189500 79 103 116
167.000000 -193.000000 4.788000 76 102 115
168.000000 -193.000000 4.389000 80 102 114
169.000000 -193.000000 4.788000 80 102 114
170.000000 -193.000000 5.187000 78 102 114
171.000000 -193.000000 5.386500 79 101 113
172.000000 -193.000000 4.389000 82 102 111
184.000000 -193.000000 41.895000 77 101 110
185.000000 -193.000000 42.293999 77 101 112
186.000000 -193.000000 42.293999 76 102 113
187.000000 -193.000000 42.094498 77 103 111
188.000000 -193.000000 42.094498 76 101 112
189.000000 -193.000000 41.895000 75 103 112
190.000000 -193.000000 41.695499 77 103 112
191.000000 -193.000000 41.695499 78 103 112
192.000000 -193.000000 41.895000 78 103 112
193.000000 -193.000000 41.895000 78 105 112
194.000000 -193.000000 41.695499 72 106 112
195.000000 -193.000000 41.495998 73 104 114
196.000000 -193.000000 41.495998 79 104 113
197.000000 -193.000000 41.695499 81 104 111
198.000000 -193.000000 41.895000 80 103 111
199.000000 -193.000000 42.094498 78 104 112
200.000000 -193.000000 42.293999 76 102 114
201.000000 -193.000000 42.493500 79 102 116
202.000000 -193.000000 42.493500 103 114 123
203.000000 -193.000000 42.493500 151 140 147
204.000000 -193.000000 42.094498 177 160 174
205.000000 -193.000000 41.895000 126 135 150
206.000000 -193.000000 41.296497 79 108 116
207.000000 -193.000000 40.897499 94 109 115
208.000000 -193.000000 39.700500 142 129 138
209.000000 -193.000000 38.702999 174 160 177
210.000000 -193.000000 38.304001 173 167 183
211.000000 -193.000000 38.304001 122 129 145
212.000000 -193.000000 38.104500 84 104 118
213.000000 -193.000000 38.104500 79 101 117
214.000000 -193.000000 38.104500 81 103 114
215.000000 -193.000000 38.104500 82 103 114
221.000000 -193.000000 -3.192000 81 103 116
222.000000 -193.000000 -3.192000 78 104 113
223.000000 -193.000000 -3.192000 77 104 113
224.000000 -193.000000 -3.192000 71 103 115
225.000000 -193.000000 -3.192000 70 103 116
226.000000 -193.000000 -3.192000 72 103 117
227.000000 -193.000000 -3.192000 77 102 115
228.000000 -193.000000 -3.192000 77 101 113
229.000000 -193.000000 -3.192000 76 102 113
230.000000 -193.000000 -3.192000 77 103 112
231.000000 -193.000000 -3.192000 78 103 111
232.000000 -193.000000 -3.192000 75 103 113
233.000000 -193.000000 -3.192000 79 102 113
234.000000 -193.000000 -1.197000 78 102 111
235.000000 -193.000000 -0.798000 74 102 110
236.000000 -193.000000 -0.997500 78 102 111
237.000000 -193.000000 -3.192000 78 100 113
238.000000 -193.000000 -3.192000 76 100 114
239.000000 -193.000000 -3.192000 78 99 113
240.000000 -193.000000 -3.192000 79 100 110
241.000000 -193.000000 -3.192000 78 102 108
242.000000 -193.000000 -3.192000 77 102 109
243.000000 -193.000000 -3.192000 77 101 110
244.000000 -193.000000 -3.192000 76 100 110
245.000000 -193.000000 -0.399000 75 103 108
246.000000 -193.000000 0.000000 75 101 107
247.000000 -193.000000 0.000000 77 99 107
248.000000 -193.000000 0.199500 78 97 107
249.000000 -193.000000 0.399000 77 97 106
250.000000 -193.000000 0.399000 76 97 105
251.000000 -193.000000 0.199500 75 97 106
252.000000 -193.000000 0.199500 74 98 106
253.000000 -193.000000 0.199500 73 97 104
254.000000 -193.000000 0.000000 71 93 106
255.000000 -193.000000 0.199500 73 94 107
256.000000 -193.000000 0.399000 72 96 105
257.000000 -193.000000 0.798000 74 96 105
258.000000 -193.000000 0.997500 79 99 104
259.000000 -193.000000 1.396500 101 113 113
260.000000 -193.000000 1.995000 141 142 143
261.000000 -193.000000 1.995000 155 150 156
262.000000 -193.000000 1.197000 158 148 158
263.000000 -193.000000 0.598500 155 147 159
264.000000 -193.000000 0.000000 153 147 157
265.000000 -193.000000 0.000000 153 149 154
266.000000 -193.000000 -0.199500 155 148 155
267.000000 -193.000000 -0.399000 153 149 154
268.000000 -193.000000 -0.598500 153 149 152
269.000000 -193.000000 -0.798000 152 148 152
270.000000 -193.000000 -0.997500 151 148 151
271.000000 -193.000000 -1.197000 151 148 152
272.000000 -193.000000 -1.197000 152 147 151
273.000000 -193.000000 -1.197000 150 147 150
274.000000 -193.000000 -0.997500 149 147 150
275.000000 -193.000000 -0.997500 149 146 149
276.000000 -193.000000 -0.399000 150 143 151
277.000000 -193.000000 -0.399000 150 142 151
278.000000 -193.000000 -0.399000 146 142 150
279.000000 -193.000000 -0.598500 145 142 149
280.000000 -193.000000 -0.598500 145 142 148
281.000000 -193.000000 -0.798000 147 142 145
282.000000 -193.000000 -0.997500 149 140 142
283.000000 -193.000000 -0.798000 147 141 141
284.000000 -193.000000 -0.798000 146 140 141
285.000000 -193.000000 -0.798000 143 138 142
286.000000 -193.000000 -0.798000 141 139 142
287.000000 -193.000000 -0.798000 141 139 140
288.000000 -193.000000 -0.798000 142 136 141
289.000000 -193.000000 -0.798000 142 135 139
290.000000 -193.000000 -0.598500 141 136 140
291.000000 -193.000000 -0.399000 138 135 141
292.000000 -193.000000 -0.399000 135 134 140
293.000000 -193.000000 -0.399000 135 134 137
294.000000 -193.000000 -0.399000 135 134 136
295.000000 -193.000000 -0.399000 136 132 135
296.000000 -193.000000 -0.399000 136 130 135
297.000000 -193.000000 -0.399000 133 129 133
298.000000 -193.000000 -0.399000 131 130 132
299.000000 -193.000000 -0.598500 132 131 129
300.000000 -193.000000 -0.399000 133 128 129
301.000000 -193.000000 -0.598500 132 126 129
302.000000 -193.000000 -0.598500 131 125 129
303.000000 -193.000000 -0.598500 128 124 127
304.000000 -193.000000 -0.199500 123 120 121
305.000000 -193.000000 0.399000 119 116 118
306.000000 -193.000000 0.798000 118 117 117
307.000000 -193.000000 0.798000 119 117 117
308.000000 -193.000000 0.798000 121 119 117
309.000000 -193.000000 0.598500 118 118 117
310.000000 -193.000000 0.598500 120 117 116
311.000000 -193.000000 0.399000 119 115 113
312.000000 -193.000000 0.399000 119 115 114
313.000000 -193.000000 0.399000 118 114 118
314.000000 -193.000000 0.399000 118 113 119
315.000000 -193.000000 0.000000 116 113 118
316.000000 -193.000000 0.000000 116 112 114
317.000000 -193.000000 0.199500 116 112 112
318.000000 -193.000000 0.399000 114 111 114
319.000000 -193.000000 0.598500 113 108 117
320.000000 -193.000000 0.798000 112 109 116
321.000000 -193.000000 0.798000 114 110 113
322.000000 -193.000000 0.798000 95 91 93
63.000000 -194.000000 0.598500 168 163 168
64.000000 -194.000000 0.598500 166 164 169
65.000000 -194.000000 0.199500 166 165 168
66.000000 -194.000000 0.000000 170 164 171
67.000000 -194.000000 -0.199500 171 164 170
68.000000 -194.000000 -0.598500 171 164 169
69.000000 -194.000000 -1.197000 172 164 168
70.000000 -194.000000 -1.197000 170 163 171
71.000000 -194.000000 -1.197000 169 163 172
72.000000 -194.000000 -0.798000 170 165 168
73.000000 -194.000000 -0.598500 170 165 169
74.000000 -194.000000 -0.199500 171 164 169
75.000000 -194.000000 -0.399000 172 163 169
76.000000 -194.000000 0.000000 169 165 169
77.000000 -194.000000 1.396500 169 165 170
78.000000 -194.000000 1.995000 169 165 168
79.000000 -194.000000 1.995000 171 165 169
80.000000 -194.000000 -3.192000 172 164 170
81.000000 -194.000000 -3.192000 173 164 170
82.000000 -194.000000 -3.192000 172 165 167
83.000000 -194.000000 -3.192000 169 165 167
84.000000 -194.000000 -3.192000 169 164 170
85.000000 -194.000000 -3.192000 168 164 170
86.000000 -194.000000 -3.192000 167 164 170
87.000000 -194.000000 -3.192000 167 163 170
88.000000 -194.000000 -3.192000 170 163 168
89.000000 -194.000000 -3.192000 170 163 168
90.000000 -194.000000 -3.192000 169 163 169
91.000000 -194.000000 -3.192000 169 164 168
92.000000 -194.000000 1.995000 169 162 167
93.000000 -194.000000 1.995000 170 160 169
94.000000 -194.000000 1.197000 169 162 168
95.000000 -194.000000 0.598500 169 161 168
96.000000 -194.000000 -3.192000 166 161 169
97.000000 -194.000000 -3.192000 166 161 167
98.000000 -194.000000 -3.192000 167 160 166
99.000000 -194.000000 -3.192000 168 160 166
100.000000 -194.000000 -3.192000 165 160 167
101.000000 -194.000000 -3.192000 166 159 168
102.000000 -194.000000 -3.192000 167 158 167
103.000000 -194.000000 -3.192000 166 158 165
104.000000 -194.000000 -3.192000 163 160 162
105.000000 -194.000000 -3.192000 161 161 161
106.000000 -194.000000 -3.192000 163 158 162
107.000000 -194.000000 -3.192000 164 156 163
108.000000 -194.000000 -3.192000 163 155 163
109.000000 -194.000000 -3.192000 161 155 161
110.000000 -194.000000 -3.192000 159 154 162
111.000000 -194.000000 -3.192000 160 152 162
112.000000 -194.000000 -3.192000 158 154 159
113.000000 -194.000000 -3.192000 157 154 156
114.000000 -194.000000 -3.192000 158 153 155
115.000000 -194.000000 -3.192000 158 149 155
116.000000 -194.000000 -3.192000 155 148 155
117.000000 -194.000000 -0.598500 152 150 152
118.000000 -194.000000 -0.399000 152 151 149
119.000000 -194.000000 -0.399000 152 146 151
120.000000 -194.000000 -1.396500 151 144 150
121.000000 -194.000000 -3.192000 150 144 147
122.000000 -194.000000 -3.192000 148 144 144
123.000000 -194.000000 -3.192000 146 140 144
124.000000 -194.000000 -3.192000 147 138 141
125.000000 -194.000000 -1.197000 145 136 139
126.000000 -194.000000 -0.997500 138 135 136
127.000000 -194.000000 -0.997500 134 133 133
128.000000 -194.000000 -0.997500 133 129 130
129.000000 -194.000000 0.399000 130 126 128
130.000000 -194.000000 1.197000 128 122 122
131.000000 -194.000000 2.992500 125 118 118
132.000000 -194.000000 3.790500 122 114 116
133.000000 -194.000000 4.189500 117 110 113
134.000000 -194.000000 5.187000 112 107 111
135.000000 -194.000000 6.184500 100 104 104
136.000000 -194.000000 6.384000 84 104 109
137.000000 -194.000000 6.384000 77 105 115
138.000000 -194.000000 6.184500 77 105 115
139.000000 -194.000000 5.785500 76 104 114
140.000000 -194.000000 5.586000 74 104 115
141.000000 -194.000000 5.386500 75 104 114
142.000000 -194.000000 4.588500 77 104 113
143.000000 -194.000000 4.588500 79 104 112
144.000000 -194.000000 4.389000 78 101 114
145.000000 -194.000000 4.189500 78 101 115
146.000000 -194.000000 4.189500 79 101 114
147.000000 -194.000000 4.189500 81 101 113
148.000000 -194.000000 4.389000 78 101 115
149.000000 -194.000000 4.389000 78 102 115
150.000000 -194.000000 4.588500 80 103 113
151.000000 -194.000000 4.389000 81 103 112
152.000000 -194.000000 3.591000 78 103 113
153.000000 -194.000000 3.391500 77 102 115
154.000000 -194.000000 3.591000 78 100 115
155.000000 -194.000000 5.187000 80 102 113
156.000000 -194.000000 5.187000 80 102 114
157.000000 -194.000000 4.389000 78 104 112
158.000000 -194.000000 3.391500 74 104 110
159.000000 -194.000000 3.192000 73 103 113
160.000000 -194.000000 3.192000 77 103 112
161.000000 -194.000000 3.192000 77 103 113
162.000000 -194.000000 3.391500 76 105 114
163.000000 -194.000000 3.591000 76 102 116
164.000000 -194.000000 3.790500 80 101 114
165.000000 -194.000000 4.189500 82 103 112
166.000000 -194.000000 4.788000 79 102 115
167.000000 -194.000000 5.187000 75 101 116
168.000000 -194.000000 5.187000 78 101 114
169.000000 -194.000000 5.386500 82 103 112
170.000000 -194.000000 5.386500 81 102 113
171.000000 -194.000000 5.785500 78 102 113
172.000000 -194.000000 5.386500 79 102 112
184.000000 -194.000000 42.293999 77 99 114
185.000000 -194.000000 42.493500 78 100 114
186.000000 -194.000000 42.692997 76 102 113
187.000000 -194.000000 42.692997 77 102 111
188.000000 -194.000000 42.493500 78 101 112
189.000000 -194.000000 42.293999 77 104 109
190.000000 -194.000000 42.293999 77 103 112
191.000000 -194.000000 42.493500 79 101 114
192.000000 -194.000000 42.692997 80 102 114
193.000000 -194.000000 42.692997 80 104 112
194.000000 -194.000000 42.293999 75 105 112
195.000000 -194.000000 41.895000 74 103 114
196.000000 -194.000000 41.895000 77 101 115
197.000000 -194.000000 41.895000 80 100 114
198.000000 -194.000000 42.094498 79 101 110
199.000000 -194.000000 42.293999 75 103 112
200.000000 -194.000000 42.493500 77 101 114
201.000000 -194.000000 42.493500 78 100 115
202.000000 -194.000000 42.692997 93 109 120
203.000000 -194.000000 42.692997 140 134 142
204.000000 -194.000000 42.493500 177 160 172
205.000000 -194.000000 42.094498 146 152 164
206.000000 -194.000000 41.495998 90 115 121
207.000000 -194.000000 40.897499 108 115 122
208.000000 -194.000000 39.700500 153 140 149
209.000000 -194.000000 38.702999 181 170 184
210.000000 -194.000000 38.304001 173 167 182
211.000000 -194.000000 38.304001 113 120 137
212.000000 -194.000000 38.104500 79 103 114
213.000000 -194.000000 38.104500 77 101 113
214.000000 -194.000000 38.304001 78 101 113
215.000000 -194.000000 38.304001 78 102 112
216.000000 -194.000000 5.985000 78 103 111
218.000000 -194.000000 5.785500 79 99 113
222.000000 -194.000000 -3.192000 78 103 111
223.000000 -194.000000 -3.192000 78 102 111
224.000000 -194.000000 -3.192000 71 101 112
225.000000 -194.000000 -3.192000 70 101 114
226.000000 -194.000000 -3.192000 71 101 113
227.000000 -194.000000 -3.192000 75 100 112
228.000000 -194.000000 -3.192000 77 100 112
229.000000 -194.000000 -3.192000 78 99 112
230.000000 -194.000000 -3.192000 79 98 111
231.000000 -194.000000 -3.192000 79 98 111
232.000000 -194.000000 -3.192000 76 99 111
233.000000 -194.000000 -3.192000 76 100 112
234.000000 -194.000000 -1.197000 77 99 110
235.000000 -194.000000 -0.997500 78 99 109
236.000000 -194.000000 -0.997500 78 100 109
237.000000 -194.000000 -3.192000 77 98 110
238.000000 -194.000000 -3.192000 76 96 114
239.000000 -194.000000 -3.192000 76 97 113
240.000000 -194.000000 -3.192000 78 97 110
241.000000 -194.000000 -3.192000 77 99 107
242.000000 -194.000000 -3.192000 76 100 107
243.000000 -194.000000 -3.192000 75 97 109
244.000000 -194.000000 -3.192000 75 97 109
245.000000 -194.000000 -0.399000 73 99 108
246.000000 -194.000000 0.000000 75 99 107
247.000000 -194.000000 0.199500 73 98 105
248.000000 -194.000000 0.399000 69 97 106
249.000000 -194.000000 0.399000 71 95 107
250.000000 -194.000000 0.598500 71 94 106
251.000000 -194.000000 0.399000 74 96 103
252.000000 -194.000000 0.399000 75 95 103
253.000000 -194.000000 0.199500 70 94 104
254.000000 -194.000000 0.000000 69 93 104
255.000000 -194.000000 0.000000 70 94 104
256.000000 -194.000000 0.399000 73 95 105
257.000000 -194.000000 0.798000 78 96 106
258.000000 -194.000000 1.396500 83 98 106
259.000000 -194.000000 1.995000 92 106 109
260.000000 -194.000000 2.793000 123 129 131
261.000000 -194.000000 2.793000 150 147 153
262.000000 -194.000000 2.194500 154 150 158
263.000000 -194.000000 1.596000 153 150 158
264.000000 -194.000000 0.598500 152 149 156
265.000000 -194.000000 0.000000 152 150 153
266.000000 -194.000000 0.000000 152 148 155
267.000000 -194.000000 -0.199500 151 148 154
268.000000 -194.000000 -0.399000 152 149 152
269.000000 -194.000000 -0.798000 151 148 152
270.000000 -194.000000 -0.997500 152 147 152
271.000000 -194.000000 -0.997500 151 147 153
272.000000 -194.000000 -1.197000 150 146 152
273.000000 -194.000000 -0.997500 147 146 151
274.000000 -194.000000 -0.997500 146 148 149
275.000000 -194.000000 -0.798000 148 146 148
276.000000 -194.000000 -0.199500 150 144 148
277.000000 -194.000000 -0.199500 148 143 149
278.000000 -194.000000 0.000000 145 142 150
279.000000 -194.000000 -0.199500 144 144 147
280.000000 -194.000000 -0.598500 143 142 147
281.000000 -194.000000 -0.798000 146 141 146
282.000000 -194.000000 -0.798000 146 141 143
283.000000 -194.000000 -0.798000 145 141 141
284.000000 -194.000000 -0.798000 146 139 143
285.000000 -194.000000 -0.798000 142 137 144
286.000000 -194.000000 -0.798000 141 137 143
287.000000 -194.000000 -0.798000 144 137 141
288.000000 -194.000000 -0.798000 142 136 140
289.000000 -194.000000 -0.598500 141 136 139
290.000000 -194.000000 -0.399000 140 137 139
291.000000 -194.000000 -0.399000 140 134 140
292.000000 -194.000000 -0.399000 139 133 139
293.000000 -194.000000 -0.399000 136 133 138
294.000000 -194.000000 -0.399000 134 133 138
295.000000 -194.000000 -0.399000 137 133 134
296.000000 -194.000000 -0.598500 135 132 133
297.000000 -194.000000 -0.598500 132 131 133
298.000000 -194.000000 -0.798000 132 129 133
299.000000 -194.000000 -0.798000 133 129 131
300.000000 -194.000000 -0.798000 133 129 129
301.000000 -194.000000 -0.798000 131 128 130
302.000000 -194.000000 -0.798000 133 126 129
303.000000 -194.000000 -0.598500 128 124 126
304.000000 -194.000000 -0.199500 122 119 121
305.000000 -194.000000 0.399000 120 116 118
306.000000 -194.000000 0.598500 120 117 118
307.000000 -194.000000 0.798000 119 117 116
308.000000 -194.000000 0.598500 119 117 118
309.000000 -194.000000 0.598500 118 116 119
310.000000 -194.000000 0.000000 122 114 118
311.000000 -194.000000 0.000000 118 115 115
312.000000 -194.000000 0.199500 116 115 116
313.000000 -194.000000 0.399000 116 114 120
314.000000 -194.000000 0.199500 116 112 118
315.000000 -194.000000 0.000000 116 112 116
316.000000 -194.000000 0.000000 116 113 114
317.000000 -194.000000 0.199500 114 112 115
318.000000 -194.000000 0.399000 111 111 115
319.000000 -194.000000 0.598500 112 110 116
320.000000 -194.000000 0.598500 113 108 117
321.000000 -194.000000 0.798000 113 111 112
322.000000 -194.000000 0.798000 93 92 91
63.000000 -195.000000 0.000000 167 164 167
64.000000 -195.000000 0.399000 167 164 167
65.000000 -195.000000 0.000000 168 164 167
66.000000 -195.000000 0.000000 171 164 170
67.000000 -195.000000 -0.399000 171 164 169
68.000000 -195.000000 -0.598500 170 165 168
69.000000 -195.000000 -1.197000 171 165 168
70.000000 -195.000000 -1.197000 168 165 170
71.000000 -195.000000 -0.997500 168 164 171
72.000000 -195.000000 -0.798000 170 163 170
73.000000 -195.000000 -0.199500 171 163 170
74.000000 -195.000000 0.000000 170 163 169
75.000000 -195.000000 0.000000 171 162 171
76.000000 -195.000000 0.598500 170 164 170
77.000000 -195.000000 1.596000 171 164 171
78.000000 -195.000000 1.795500 170 163 171
79.000000 -195.000000 1.197000 170 164 170
80.000000 -195.000000 -3.192000 171 164 170
81.000000 -195.000000 -3.192000 172 166 167
82.000000 -195.000000 -3.192000 171 166 166
83.000000 -195.000000 -3.192000 170 164 168
84.000000 -195.000000 -3.192000 171 163 170
85.000000 -195.000000 -3.192000 170 163 169
86.000000 -195.000000 -3.192000 170 164 167
87.000000 -195.000000 -3.192000 171 162 168
88.000000 -195.000000 -3.192000 171 163 168
89.000000 -195.000000 -3.192000 169 163 169
90.000000 -195.000000 -3.192000 170 163 168
91.000000 -195.000000 -3.192000 170 165 167
92.000000 -195.000000 1.396500 170 163 166
93.000000 -195.000000 1.396500 171 161 168
94.000000 -195.000000 0.997500 168 162 169
95.000000 -195.000000 0.598500 167 162 169
96.000000 -195.000000 -3.192000 168 163 167
97.000000 -195.000000 -3.192000 168 162 165
98.000000 -195.000000 -3.192000 167 160 167
99.000000 -195.000000 -3.192000 166 160 168
100.000000 -195.000000 -3.192000 166 159 167
101.000000 -195.000000 -3.192000 167 159 167
102.000000 -195.000000 -3.192000 165 158 167
103.000000 -195.000000 -3.192000 165 157 165
104.000000 -195.000000 -3.192000 164 158 163
105.000000 -195.000000 -3.192000 161 159 163
106.000000 -195.000000 -3.192000 164 158 162
107.000000 -195.000000 -3.192000 166 158 160
108.000000 -195.000000 -3.192000 165 157 162
109.000000 -195.000000 -3.192000 164 155 161
110.000000 -195.000000 -3.192000 162 154 162
111.000000 -195.000000 -3.192000 163 153 162
112.000000 -195.000000 -3.192000 159 154 160
113.000000 -195.000000 -3.192000 158 154 157
114.000000 -195.000000 -3.192000 158 153 156
115.000000 -195.000000 -3.192000 158 150 156
116.000000 -195.000000 -0.598500 157 150 154
117.000000 -195.000000 -0.399000 154 150 152
118.000000 -195.000000 -0.199500 153 149 152
119.000000 -195.000000 -0.199500 152 146 153
120.000000 -195.000000 -0.598500 152 145 150
121.000000 -195.000000 -1.396500 151 145 146
122.000000 -195.000000 -3.192000 146 144 145
123.000000 -195.000000 -3.192000 144 141 144
124.000000 -195.000000 -3.192000 146 138 141
125.000000 -195.000000 -1.197000 145 135 140
126.000000 -195.000000 -0.997500 140 132 138
127.000000 -195.000000 -0.997500 136 131 135
128.000000 -195.000000 -0.997500 134 130 131
129.000000 -195.000000 0.399000 130 127 128
130.000000 -195.000000 0.997500 127 122 125
131.000000 -195.000000 2.992500 124 118 122
132.000000 -195.000000 3.790500 120 115 118
133.000000 -195.000000 4.189500 116 112 114
134.000000 -195.000000 5.586000 112 108 110
135.000000 -195.000000 6.384000 98 103 105
136.000000 -195.000000 6.384000 82 104 111
137.000000 -195.000000 6.583500 75 106 116
138.000000 -195.000000 6.384000 76 104 117
139.000000 -195.000000 5.785500 75 102 116
140.000000 -195.000000 5.586000 77 103 114
141.000000 -195.000000 5.386500 78 102 113
142.000000 -195.000000 4.588500 78 101 115
143.000000 -195.000000 4.588500 78 102 111
144.000000 -195.000000 4.189500 78 101 111
145.000000 -195.000000 4.189500 80 100 112
146.000000 -195.000000 4.189500 77 101 113
147.000000 -195.000000 4.189500 78 103 112
148.000000 -195.000000 4.389000 75 103 113
149.000000 -195.000000 4.189500 72 104 114
150.000000 -195.000000 3.591000 75 105 111
151.000000 -195.000000 2.992500 77 102 113
152.000000 -195.000000 3.391500 78 101 113
153.000000 -195.000000 3.391500 78 101 114
154.000000 -195.000000 1.197000 76 101 113
155.000000 -195.000000 1.596000 78 101 113
156.000000 -195.000000 3.192000 79 100 116
157.000000 -195.000000 3.391500 77 100 113
158.000000 -195.000000 3.192000 77 101 110
159.000000 -195.000000 2.992500 76 102 110
160.000000 -195.000000 2.992500 78 103 108
161.000000 -195.000000 3.192000 75 102 112
162.000000 -195.000000 3.391500 74 103 114
163.000000 -195.000000 3.391500 75 100 116
164.000000 -195.000000 3.790500 80 98 116
165.000000 -195.000000 4.189500 78 100 112
166.000000 -195.000000 4.588500 75 101 113
167.000000 -195.000000 5.187000 74 101 114
168.000000 -195.000000 5.187000 77 101 114
169.000000 -195.000000 5.386500 80 101 112
170.000000 -195.000000 5.386500 79 100 112
171.000000 -195.000000 5.785500 74 102 112
172.000000 -195.000000 5.187000 73 103 111
176.000000 -195.000000 3.591000 73 102 110
184.000000 -195.000000 42.493500 77 97 112
185.000000 -195.000000 42.692997 77 98 111
186.000000 -195.000000 43.291500 77 100 111
187.000000 -195.000000 43.291500 76 100 112
188.000000 -195.000000 42.892498 78 101 112
189.000000 -195.000000 42.692997 79 101 110
190.000000 -195.000000 42.692997 79 100 110
191.000000 -195.000000 43.091999 80 100 113
192.000000 -195.000000 43.690498 78 101 113
193.000000 -195.000000 43.490997 77 102 110
194.000000 -195.000000 42.892498 75 103 110
195.000000 -195.000000 42.293999 74 100 113
196.000000 -195.000000 42.094498 76 100 113
197.000000 -195.000000 42.094498 78 99 111
198.000000 -195.000000 42.293999 75 98 111
199.000000 -195.000000 42.493500 73 99 112
200.000000 -195.000000 42.692997 75 101 112
201.000000 -195.000000 42.692997 74 100 112
202.000000 -195.000000 42.892498 85 105 116
203.000000 -195.000000 42.892498 128 128 133
204.000000 -195.000000 42.692997 173 156 163
205.000000 -195.000000 42.293999 168 163 176
206.000000 -195.000000 41.695499 116 124 136
207.000000 -195.000000 41.097000 130 125 132
208.000000 -195.000000 39.700500 167 151 161
209.000000 -195.000000 38.702999 187 177 190
210.000000 -195.000000 38.503498 167 164 180
211.000000 -195.000000 38.304001 101 115 129
212.000000 -195.000000 38.104500 77 102 110
213.000000 -195.000000 38.104500 77 103 108
214.000000 -195.000000 38.104500 76 102 109
215.000000 -195.000000 38.104500 75 101 111
216.000000 -195.000000 5.985000 77 101 111
217.000000 -195.000000 5.785500 78 100 112
218.000000 -195.000000 5.785500 80 100 112
219.000000 -195.000000 5.785500 75 102 112
220.000000 -195.000000 -3.192000 74 103 111
222.000000 -195.000000 -3.192000 75 102 107
223.000000 -195.000000 -3.192000 74 100 109
224.000000 -195.000000 -3.192000 71 100 110
225.000000 -195.000000 -3.192000 71 99 112
226.000000 -195.000000 -3.192000 72 99 112
227.000000 -195.000000 -3.192000 72 100 110
228.000000 -195.000000 -3.192000 74 101 109
229.000000 -195.000000 -3.192000 76 99 111
230.000000 -195.000000 -3.192000 76 96 111
231.000000 -195.000000 -3.192000 77 95 110
232.000000 -195.000000 -3.192000 76 97 111
233.000000 -195.000000 -3.192000 73 98 110
234.000000 -195.000000 -1.197000 76 97 110
235.000000 -195.000000 -0.798000 76 97 110
236.000000 -195.000000 -0.997500 77 96 108
237.000000 -195.000000 -1.197000 80 95 109
238.000000 -195.000000 -3.192000 75 95 111
239.000000 -195.000000 -3.192000 76 98 109
240.000000 -195.000000 -3.192000 79 96 108
241.000000 -195.000000 -3.192000 77 98 107
242.000000 -195.000000 -3.192000 75 99 105
243.000000 -195.000000 -3.192000 73 98 105
244.000000 -195.000000 -0.798000 75 97 106
245.000000 -195.000000 -0.399000 74 96 108
246.000000 -195.000000 0.199500 74 97 107
247.000000 -195.000000 0.199500 74 97 104
248.000000 -195.000000 0.399000 71 98 103
249.000000 -195.000000 0.399000 70 96 104
250.000000 -195.000000 0.598500 71 95 103
251.000000 -195.000000 0.598500 73 94 101
252.000000 -195.000000 0.598500 72 93 102
253.000000 -195.000000 0.399000 69 93 102
254.000000 -195.000000 0.199500 71 94 101
255.000000 -195.000000 0.199500 72 95 100
256.000000 -195.000000 0.399000 73 97 101
257.000000 -195.000000 0.798000 78 98 104
258.000000 -195.000000 1.795500 83 100 105
259.000000 -195.000000 2.793000 86 104 107
260.000000 -195.000000 3.192000 104 115 118
261.000000 -195.000000 3.192000 136 138 143
262.000000 -195.000000 3.192000 151 150 156
263.000000 -195.000000 2.793000 154 150 158
264.000000 -195.000000 1.596000 152 149 156
265.000000 -195.000000 0.798000 151 150 153
266.000000 -195.000000 0.199500 153 149 153
267.000000 -195.000000 0.000000 154 149 152
268.000000 -195.000000 -0.199500 153 148 152
269.000000 -195.000000 -0.598500 151 146 153
270.000000 -195.000000 -0.997500 152 147 151
271.000000 -195.000000 -0.997500 151 147 152
272.000000 -195.000000 -0.997500 149 146 152
273.000000 -195.000000 -0.997500 148 145 151
274.000000 -195.000000 -0.798000 149 146 149
275.000000 -195.000000 -0.798000 149 144 148
276.000000 -195.000000 -0.199500 150 144 146
277.000000 -195.000000 0.000000 149 143 147
278.000000 -195.000000 0.000000 146 141 149
279.000000 -195.000000 -0.199500 143 141 148
280.000000 -195.000000 -0.199500 143 140 148
281.000000 -195.000000 -0.798000 145 141 147
282.000000 -195.000000 -0.997500 143 143 143
283.000000 -195.000000 -0.997500 144 140 142
284.000000 -195.000000 -0.997500 146 138 143
285.000000 -195.000000 -0.997500 141 138 145
286.000000 -195.000000 -0.798000 141 137 143
287.000000 -195.000000 -0.798000 144 135 142
288.000000 -195.000000 -0.798000 140 136 141
289.000000 -195.000000 -0.598500 139 136 140
290.000000 -195.000000 -0.399000 139 135 139
291.000000 -195.000000 -0.399000 139 134 140
292.000000 -195.000000 -0.399000 140 134 138
293.000000 -195.000000 -0.399000 137 134 136
294.000000 -195.000000 -0.399000 137 133 136
295.000000 -195.000000 -0.598500 137 132 134
296.000000 -195.000000 -0.997500 134 132 134
297.000000 -195.000000 -1.197000 131 132 133
298.000000 -195.000000 -3.192000 132 130 131
299.000000 -195.000000 -3.192000 132 128 131
300.000000 -195.000000 -1.396500 131 130 129
301.000000 -195.000000 -1.197000 128 128 130
302.000000 -195.000000 -0.997500 131 125 131
303.000000 -195.000000 -0.798000 128 122 127
304.000000 -195.000000 -0.199500 122 118 120
305.000000 -195.000000 0.199500 121 115 118
306.000000 -195.000000 0.399000 119 116 118
307.000000 -195.000000 0.598500 117 116 117
308.000000 -195.000000 0.399000 119 115 120
309.000000 -195.000000 0.000000 119 115 120
310.000000 -195.000000 0.000000 122 114 119
311.000000 -195.000000 0.000000 118 112 117
312.000000 -195.000000 0.000000 115 114 117
313.000000 -195.000000 0.000000 117 114 117
314.000000 -195.000000 0.000000 117 111 118
315.000000 -195.000000 0.000000 117 109 117
316.000000 -195.000000 0.000000 114 112 114
317.000000 -195.000000 0.199500 114 113 114
318.000000 -195.000000 0.399000 113 112 115
319.000000 -195.000000 0.399000 113 109 115
320.000000 -195.000000 0.598500 115 107 116
321.000000 -195.000000 0.798000 113 110 113
322.000000 -195.000000 0.798000 93 91 91
63.000000 -196.000000 -0.199500 167 164 167
64.000000 -196.000000 0.000000 169 163 166
65.000000 -196.000000 -0.399000 168 164 169
66.000000 -196.000000 -0.598500 168 163 170
67.000000 -196.000000 -1.396500 168 164 168
68.000000 -196.000000 -3.192000 169 165 167
69.000000 -196.000000 -3.192000 170 166 167
70.000000 -196.000000 -3.192000 170 165 168
71.000000 -196.000000 -3.192000 169 165 170
72.000000 -196.000000 -0.798000 170 164 170
73.000000 -196.000000 0.000000 170 164 170
74.000000 -196.000000 0.000000 169 164 169
75.000000 -196.000000 0.199500 170 164 170
76.000000 -196.000000 0.598500 171 165 169
77.000000 -196.000000 1.596000 171 163 170
78.000000 -196.000000 1.596000 169 163 170
79.000000 -196.000000 0.399000 169 165 170
80.000000 -196.000000 -3.192000 170 165 171
81.000000 -196.000000 -3.192000 169 167 167
82.000000 -196.000000 -3.192000 169 167 166
83.000000 -196.000000 -3.192000 171 165 167
84.000000 -196.000000 -3.192000 172 163 169
85.000000 -196.000000 -3.192000 171 163 169
86.000000 -196.000000 -3.192000 170 164 166
87.000000 -196.000000 -3.192000 169 164 167
88.000000 -196.000000 -3.192000 169 165 169
89.000000 -196.000000 -3.192000 168 164 168
90.000000 -196.000000 -3.192000 169 164 167
91.000000 -196.000000 -3.192000 167 165 167
92.000000 -196.000000 0.199500 167 163 168
93.000000 -196.000000 0.598500 169 163 168
94.000000 -196.000000 0.598500 167 162 168
95.000000 -196.000000 0.000000 166 163 166
96.000000 -196.000000 -3.192000 169 163 165
97.000000 -196.000000 -3.192000 168 162 167
98.000000 -196.000000 -3.192000 166 161 168
99.000000 -196.000000 -3.192000 167 159 168
100.000000 -196.000000 -3.192000 167 159 167
101.000000 -196.000000 -3.192000 166 160 165
102.000000 -196.000000 -3.192000 165 160 164
103.000000 -196.000000 -3.192000 165 157 165
104.000000 -196.000000 -3.192000 164 158 166
105.000000 -196.000000 -3.192000 164 158 166
106.000000 -196.000000 -3.192000 166 158 162
107.000000 -196.000000 -3.192000 164 160 160
108.000000 -196.000000 -3.192000 164 158 161
109.000000 -196.000000 -3.192000 165 156 161
110.000000 -196.000000 -3.192000 164 156 160
111.000000 -196.000000 -3.192000 164 153 160
112.000000 -196.000000 -3.192000 160 152 160
113.000000 -196.000000 -3.192000 159 153 159
114.000000 -196.000000 -3.192000 159 152 157
115.000000 -196.000000 -1.396500 159 151 157
116.000000 -196.000000 -0.598500 159 152 152
117.000000 -196.000000 -0.399000 157 150 152
118.000000 -196.000000 -0.399000 155 147 153
119.000000 -196.000000 -0.598500 153 147 151
120.000000 -196.000000 -0.997500 152 146 150
121.000000 -196.000000 -1.197000 152 145 149
122.000000 -196.000000 -3.192000 148 142 149
123.000000 -196.000000 -3.192000 145 139 146
124.000000 -196.000000 -3.192000 145 138 142
125.000000 -196.000000 -3.192000 141 136 141
126.000000 -196.000000 -3.192000 138 132 139
127.000000 -196.000000 -0.997500 137 130 135
128.000000 -196.000000 -0.997500 135 128 131
129.000000 -196.000000 0.399000 132 127 127
130.000000 -196.000000 0.997500 129 123 123
131.000000 -196.000000 3.192000 126 118 121
132.000000 -196.000000 3.990000 122 116 117
133.000000 -196.000000 4.588500 119 114 112
134.000000 -196.000000 5.586000 113 107 111
135.000000 -196.000000 6.384000 97 102 109
136.000000 -196.000000 6.783000 84 103 112
137.000000 -196.000000 6.783000 80 103 115
138.000000 -196.000000 6.583500 79 102 115
139.000000 -196.000000 5.586000 73 103 114
140.000000 -196.000000 4.389000 76 103 112
141.000000 -196.000000 4.389000 80 102 111
142.000000 -196.000000 3.990000 79 101 113
143.000000 -196.000000 3.990000 77 102 109
144.000000 -196.000000 3.990000 75 101 110
145.000000 -196.000000 3.790500 75 99 113
146.000000 -196.000000 3.790500 75 100 114
147.000000 -196.000000 3.790500 78 102 113
148.000000 -196.000000 3.790500 76 102 113
151.000000 -196.000000 0.399000 77 103 109
152.000000 -196.000000 1.197000 79 101 109
153.000000 -196.000000 0.997500 78 100 111
154.000000 -196.000000 0.598500 75 100 112
155.000000 -196.000000 0.997500 77 99 113
156.000000 -196.000000 1.197000 75 97 116
157.000000 -196.000000 1.596000 75 98 114
158.000000 -196.000000 1.596000 78 98 112
159.000000 -196.000000 1.995000 76 101 110
160.000000 -196.000000 2.194500 75 102 109
161.000000 -196.000000 2.593500 71 101 111
162.000000 -196.000000 2.992500 72 101 112
163.000000 -196.000000 3.192000 72 101 112
164.000000 -196.000000 3.192000 74 98 114
165.000000 -196.000000 3.790500 76 99 113
166.000000 -196.000000 4.189500 74 100 110
167.000000 -196.000000 4.588500 73 100 112
168.000000 -196.000000 4.389000 75 100 112
169.000000 -196.000000 4.987500 78 99 110
170.000000 -196.000000 5.187000 77 98 111
171.000000 -196.000000 5.187000 76 100 110
172.000000 -196.000000 4.189500 73 101 109
176.000000 -196.000000 3.591000 72 99 111
184.000000 -196.000000 42.493500 75 98 109
185.000000 -196.000000 43.091999 74 98 108
186.000000 -196.000000 43.291500 74 97 111
187.000000 -196.000000 43.291500 71 99 111
188.000000 -196.000000 42.892498 72 99 111
189.000000 -196.000000 42.692997 76 98 112
190.000000 -196.000000 42.892498 75 99 110
191.000000 -196.000000 43.690498 77 98 112
192.000000 -196.000000 43.690498 77 99 111
193.000000 -196.000000 43.690498 76 101 109
194.000000 -196.000000 43.490997 74 101 109
195.000000 -196.000000 42.493500 75 99 110
196.000000 -196.000000 42.293999 75 100 109
197.000000 -196.000000 42.293999 72 99 109
198.000000 -196.000000 42.493500 73 98 110
199.000000 -196.000000 42.493500 75 98 112
200.000000 -196.000000 42.892498 72 99 111
201.000000 -196.000000 43.091999 69 99 110
202.000000 -196.000000 42.892498 80 102 112
203.000000 -196.000000 42.892498 118 120 125
204.000000 -196.000000 42.692997 165 147 153
205.000000 -196.000000 42.493500 176 165 177
206.000000 -196.000000 41.695499 135 133 147
207.000000 -196.000000 41.097000 143 129 141
208.000000 -196.000000 39.899998 175 158 170
209.000000 -196.000000 38.902500 189 178 192
210.000000 -196.000000 38.503498 152 152 170
211.000000 -196.000000 38.304001 89 108 121
212.000000 -196.000000 37.904999 72 101 110
213.000000 -196.000000 37.904999 71 102 110
214.000000 -196.000000 38.104500 74 101 110
215.000000 -196.000000 38.104500 78 99 111
216.000000 -196.000000 5.785500 77 100 110
217.000000 -196.000000 5.785500 73 102 108
218.000000 -196.000000 5.785500 75 102 107
219.000000 -196.000000 5.785500 71 103 107
220.000000 -196.000000 5.386500 73 103 107
223.000000 -196.000000 -3.192000 74 98 108
224.000000 -196.000000 -3.192000 75 99 108
225.000000 -196.000000 -3.192000 73 97 110
226.000000 -196.000000 -3.192000 70 98 110
227.000000 -196.000000 -3.192000 74 99 109
228.000000 -196.000000 -3.192000 76 100 106
229.000000 -196.000000 -3.192000 72 98 108
230.000000 -196.000000 -3.192000 70 96 111
231.000000 -196.000000 -3.192000 73 95 109
232.000000 -196.000000 -3.192000 74 96 109
233.000000 -196.000000 -3.192000 74 96 108
234.000000 -196.000000 -0.798000 74 97 107
235.000000 -196.000000 -0.798000 75 98 106
236.000000 -196.000000 -0.798000 74 97 106
237.000000 -196.000000 -1.197000 74 96 108
238.000000 -196.000000 -3.192000 72 98 107
239.000000 -196.000000 -1.197000 72 99 105
240.000000 -196.000000 -1.197000 74 97 106
241.000000 -196.000000 -0.997500 72 97 106
242.000000 -196.000000 -0.798000 73 98 104
243.000000 -196.000000 -0.798000 73 99 102
244.000000 -196.000000 -0.399000 73 97 104
245.000000 -196.000000 -0.199500 72 96 105
246.000000 -196.000000 0.199500 71 96 105
247.000000 -196.000000 0.199500 75 95 103
248.000000 -196.000000 0.399000 76 95 102
249.000000 -196.000000 0.399000 70 95 103
250.000000 -196.000000 0.598500 69 95 102
251.000000 -196.000000 0.598500 70 93 101
252.000000 -196.000000 0.598500 69 93 102
253.000000 -196.000000 0.399000 68 94 101
254.000000 -196.000000 0.399000 68 95 99
255.000000 -196.000000 0.399000 67 96 98
256.000000 -196.000000 0.399000 70 96 100
257.000000 -196.000000 0.997500 75 98 102
258.000000 -196.000000 1.995000 79 102 106
259.000000 -196.000000 3.192000 85 106 108
260.000000 -196.000000 3.591000 93 109 113
261.000000 -196.000000 4.588500 114 122 128
262.000000 -196.000000 4.588500 143 141 147
263.000000 -196.000000 4.389000 154 148 155
264.000000 -196.000000 3.192000 153 149 155
265.000000 -196.000000 1.596000 153 149 155
266.000000 -196.000000 0.798000 153 149 155
267.000000 -196.000000 0.199500 154 149 151
268.000000 -196.000000 0.000000 154 147 152
269.000000 -196.000000 -0.399000 153 146 153
270.000000 -196.000000 -0.798000 152 148 152
271.000000 -196.000000 -0.997500 151 146 152
272.000000 -196.000000 -0.997500 151 144 153
273.000000 -196.000000 -0.997500 151 143 151
274.000000 -196.000000 -0.798000 151 144 149
275.000000 -196.000000 -0.798000 151 145 146
276.000000 -196.000000 -0.199500 150 145 144
277.000000 -196.000000 0.000000 151 143 146
278.000000 -196.000000 0.000000 149 141 148
279.000000 -196.000000 -0.199500 146 140 148
280.000000 -196.000000 -0.399000 147 140 147
281.000000 -196.000000 -0.997500 146 141 145
282.000000 -196.000000 -1.197000 142 141 142
283.000000 -196.000000 -1.396500 143 139 142
284.000000 -196.000000 -1.396500 144 139 143
285.000000 -196.000000 -1.396500 142 138 142
286.000000 -196.000000 -1.197000 141 138 141
287.000000 -196.000000 -0.997500 142 136 141
288.000000 -196.000000 -0.798000 139 137 141
289.000000 -196.000000 -0.798000 138 137 139
290.000000 -196.000000 -0.598500 137 135 139
291.000000 -196.000000 -0.598500 137 134 140
292.000000 -196.000000 -0.598500 137 133 138
293.000000 -196.000000 -0.598500 136 132 136
294.000000 -196.000000 -0.598500 136 131 136
295.000000 -196.000000 -0.997500 133 130 136
296.000000 -196.000000 -1.197000 133 128 136
297.000000 -196.000000 -3.192000 133 130 131
298.000000 -196.000000 -3.192000 132 130 130
299.000000 -196.000000 -3.192000 131 129 130
300.000000 -196.000000 -3.192000 131 130 130
301.000000 -196.000000 -3.192000 130 127 131
302.000000 -196.000000 -1.197000 130 122 132
303.000000 -196.000000 -0.997500 127 120 129
304.000000 -196.000000 -0.399000 122 118 118
305.000000 -196.000000 0.199500 119 117 114
306.000000 -196.000000 0.399000 117 118 116
307.000000 -196.000000 0.399000 118 118 117
308.000000 -196.000000 0.000000 119 116 118
309.000000 -196.000000 0.000000 116 118 117
310.000000 -196.000000 -0.598500 118 116 119
311.000000 -196.000000 -0.598500 118 114 116
312.000000 -196.000000 -0.199500 115 115 114
313.000000 -196.000000 0.000000 115 113 116
314.000000 -196.000000 0.000000 115 111 117
315.000000 -196.000000 0.000000 115 110 117
316.000000 -196.000000 0.000000 113 112 114
317.000000 -196.000000 0.199500 113 113 111
318.000000 -196.000000 0.399000 113 112 112
319.000000 -196.000000 0.399000 113 111 111
320.000000 -196.000000 0.598500 114 108 115
321.000000 -196.000000 0.798000 114 107 115
322.000000 -196.000000 0.798000 93 88 94
63.000000 -197.000000 -0.598500 168 163 166
64.000000 -197.000000 -0.399000 169 163 167
65.000000 -197.000000 -0.598500 168 163 170
66.000000 -197.000000 -1.396500 168 162 172
67.000000 -197.000000 -3.192000 169 164 170
68.000000 -197.000000 -3.192000 170 165 170
69.000000 -197.000000 -3.192000 170 165 170
70.000000 -197.000000 -3.192000 170 164 171
71.000000 -197.000000 -3.192000 170 166 170
72.000000 -197.000000 -0.798000 168 165 169
73.000000 -197.000000 0.000000 167 164 170
74.000000 -197.000000 0.199500 169 164 169
75.000000 -197.000000 0.598500 169 164 169
76.000000 -197.000000 1.197000 169 164 170
77.000000 -197.000000 1.596000 169 164 170
78.000000 -197.000000 0.598500 169 165 169
79.000000 -197.000000 -3.192000 170 165 169
80.000000 -197.000000 -3.192000 170 164 169
81.000000 -197.000000 -3.192000 167 166 167
82.000000 -197.000000 -3.192000 168 166 167
83.000000 -197.000000 -3.192000 170 164 169
84.000000 -197.000000 -3.192000 172 163 169
85.000000 -197.000000 -3.192000 172 163 168
86.000000 -197.000000 -3.192000 169 164 168
87.000000 -197.000000 -3.192000 169 164 169
88.000000 -197.000000 -3.192000 171 163 170
89.000000 -197.000000 -3.192000 170 163 169
90.000000 -197.000000 -3.192000 169 164 169
91.000000 -197.000000 -3.192000 170 163 168
92.000000 -197.000000 -0.399000 168 162 169
93.000000 -197.000000 0.000000 169 163 169
94.000000 -197.000000 -0.199500 168 163 167
95.000000 -197.000000 -0.798000 168 164 166
96.000000 -197.000000 -3.192000 169 162 168
97.000000 -197.000000 -3.192000 169 162 168
98.000000 -197.000000 -3.192000 167 162 166
99.000000 -197.000000 -3.192000 167 161 166
100.000000 -197.000000 -3.192000 166 162 165
101.000000 -197.000000 -3.192000 165 161 166
102.000000 -197.000000 -3.192000 164 161 165
103.000000 -197.000000 -3.192000 165 158 166
104.000000 -197.000000 -3.192000 166 158 166
105.000000 -197.000000 -3.192000 166 159 163
106.000000 -197.000000 -3.192000 166 159 162
107.000000 -197.000000 -3.192000 163 160 162
108.000000 -197.000000 -3.192000 164 159 160
109.000000 -197.000000 -3.192000 166 158 160
110.000000 -197.000000 -3.192000 164 156 160
111.000000 -197.000000 -3.192000 164 155 159
112.000000 -197.000000 -3.192000 162 154 158
113.000000 -197.000000 -3.192000 160 154 156
114.000000 -197.000000 -1.396500 159 152 156
115.000000 -197.000000 -0.997500 157 151 156
116.000000 -197.000000 -0.598500 157 152 153
117.000000 -197.000000 -0.598500 158 149 153
118.000000 -197.000000 -0.598500 156 147 154
119.000000 -197.000000 -0.798000 156 148 150
120.000000 -197.000000 -1.197000 154 148 150
121.000000 -197.000000 -1.197000 153 144 150
122.000000 -197.000000 -1.197000 150 143 149
123.000000 -197.000000 -3.192000 147 140 147
124.000000 -197.000000 -3.192000 147 138 143
125.000000 -197.000000 -3.192000 145 135 140
126.000000 -197.000000 -3.192000 138 134 137
127.000000 -197.000000 -3.192000 135 131 133
128.000000 -197.000000 -0.798000 134 129 129
129.000000 -197.000000 0.598500 131 128 125
130.000000 -197.000000 1.197000 130 124 123
131.000000 -197.000000 3.391500 126 119 121
132.000000 -197.000000 4.189500 121 116 116
133.000000 -197.000000 5.586000 119 113 113
134.000000 -197.000000 6.384000 115 108 113
135.000000 -197.000000 6.982500 96 103 111
136.000000 -197.000000 7.182000 82 102 110
137.000000 -197.000000 7.182000 77 102 113
138.000000 -197.000000 6.982500 76 102 113
139.000000 -197.000000 4.588500 73 103 111
140.000000 -197.000000 4.389000 71 103 110
141.000000 -197.000000 4.189500 72 102 111
142.000000 -197.000000 3.990000 74 102 110
143.000000 -197.000000 3.790500 72 103 109
144.000000 -197.000000 3.790500 73 101 109
145.000000 -197.000000 3.790500 76 99 112
146.000000 -197.000000 3.790500 78 101 111
147.000000 -197.000000 3.790500 80 101 113
148.000000 -197.000000 3.790500 77 100 113
149.000000 -197.000000 3.192000 77 102 111
150.000000 -197.000000 0.997500 77 101 109
151.000000 -197.000000 0.399000 77 102 107
152.000000 -197.000000 0.598500 77 102 108
153.000000 -197.000000 0.598500 75 99 110
154.000000 -197.000000 0.598500 77 98 112
155.000000 -197.000000 0.997500 77 96 113
156.000000 -197.000000 0.997500 75 96 113
157.000000 -197.000000 1.197000 76 98 111
158.000000 -197.000000 1.197000 78 98 110
159.000000 -197.000000 1.197000 74 99 111
160.000000 -197.000000 1.197000 72 99 112
161.000000 -197.000000 1.795500 71 97 113
162.000000 -197.000000 2.394000 76 98 112
163.000000 -197.000000 2.992500 72 101 110
164.000000 -197.000000 3.192000 71 100 111
165.000000 -197.000000 3.192000 72 100 110
166.000000 -197.000000 3.790500 74 101 105
167.000000 -197.000000 4.389000 75 99 107
168.000000 -197.000000 4.189500 75 99 109
169.000000 -197.000000 4.389000 79 98 109
170.000000 -197.000000 4.389000 78 97 109
171.000000 -197.000000 4.588500 74 100 106
176.000000 -197.000000 2.593500 73 98 109
177.000000 -197.000000 2.593500 72 97 107
184.000000 -197.000000 42.493500 73 97 107
185.000000 -197.000000 43.091999 70 98 106
186.000000 -197.000000 43.490997 71 97 108
187.000000 -197.000000 43.291500 70 99 107
188.000000 -197.000000 42.892498 70 98 108
189.000000 -197.000000 42.692997 72 98 109
190.000000 -197.000000 42.892498 74 99 107
191.000000 -197.000000 43.690498 76 97 109
192.000000 -197.000000 44.089500 76 97 109
193.000000 -197.000000 44.089500 76 100 106
194.000000 -197.000000 43.690498 74 99 106
195.000000 -197.000000 42.692997 74 98 107
196.000000 -197.000000 42.293999 73 97 108
197.000000 -197.000000 42.293999 72 97 110
198.000000 -197.000000 42.692997 75 96 109
199.000000 -197.000000 42.892498 75 97 110
200.000000 -197.000000 43.091999 72 98 109
201.000000 -197.000000 43.490997 73 98 107
202.000000 -197.000000 43.291500 78 99 109
203.000000 -197.000000 42.892498 108 112 118
204.000000 -197.000000 42.692997 155 138 145
205.000000 -197.000000 42.493500 176 159 172
206.000000 -197.000000 41.895000 130 121 139
207.000000 -197.000000 41.296497 115 101 113
208.000000 -197.000000 40.299000 146 129 146
209.000000 -197.000000 39.101997 163 153 172
210.000000 -197.000000 38.503498 124 127 147
211.000000 -197.000000 38.304001 82 101 113
212.000000 -197.000000 38.104500 73 99 108
213.000000 -197.000000 38.104500 73 99 109
214.000000 -197.000000 38.104500 75 99 109
215.000000 -197.000000 38.104500 79 98 108
216.000000 -197.000000 5.785500 79 98 107
217.000000 -197.000000 5.785500 72 100 106
218.000000 -197.000000 5.785500 73 100 108
219.000000 -197.000000 5.586000 74 99 108
220.000000 -197.000000 5.386500 77 100 105
221.000000 -197.000000 3.990000 78 98 107
222.000000 -197.000000 -0.997500 76 95 109
223.000000 -197.000000 -3.192000 77 96 107
224.000000 -197.000000 -3.192000 77 97 108
225.000000 -197.000000 -3.192000 75 97 108
226.000000 -197.000000 -3.192000 72 97 107
227.000000 -197.000000 -1.197000 76 97 107
228.000000 -197.000000 -0.798000 78 99 105
229.000000 -197.000000 -3.192000 75 98 105
230.000000 -197.000000 -3.192000 73 97 107
231.000000 -197.000000 -3.192000 74 98 106
232.000000 -197.000000 -3.192000 77 97 106
233.000000 -197.000000 -3.192000 77 96 107
234.000000 -197.000000 -0.798000 74 97 106
235.000000 -197.000000 -0.399000 74 97 105
236.000000 -197.000000 -0.798000 73 96 105
237.000000 -197.000000 -0.997500 71 95 105
238.000000 -197.000000 -1.197000 71 97 104
239.000000 -197.000000 -0.997500 71 97 104
240.000000 -197.000000 -0.798000 75 95 105
241.000000 -197.000000 -0.598500 74 96 103
242.000000 -197.000000 -0.399000 73 96 103
243.000000 -197.000000 -0.199500 75 97 102
244.000000 -197.000000 -0.199500 72 96 104
245.000000 -197.000000 0.199500 72 95 105
246.000000 -197.000000 0.199500 70 95 105
247.000000 -197.000000 0.199500 73 94 104
248.000000 -197.000000 0.199500 74 94 103
249.000000 -197.000000 0.399000 70 94 103
250.000000 -197.000000 0.598500 72 94 103
251.000000 -197.000000 0.598500 71 95 101
252.000000 -197.000000 0.598500 70 95 100
253.000000 -197.000000 0.598500 72 93 100
254.000000 -197.000000 0.399000 73 94 99
255.000000 -197.000000 0.399000 71 95 100
256.000000 -197.000000 0.798000 73 93 103
257.000000 -197.000000 0.997500 76 96 104
